-1.0460443 0.0503646 3.8214321
-3.4857638 0.7683102 2.5331352
0.0106794 -2.1405115 2.7311485
1.6286761 -3.1953158 0.1610563
-5.9512029 0.5484970 4.5557532
-3.8156838 -1.1544846 -3.0555022
-8.8344975 2.4095771 3.6940963
-3.3617299 1.0072917 4.7753720
-7.8167119 0.5383608 3.1353879
-8.2199354 -3.6157472 3.5005231
-5.5379200 1.9074904 1.9953716
-2.1278167 1.4141206 1.9859574
-2.3858454 0.8477920 1.1834589
-8.9845352 -2.3703468 1.0452805
-9.5876350 0.2715088 4.5743456
-10.0653095 -0.3517419 2.2732604
-10.2645998 0.0093202 2.6203301
-8.8803167 0.3002300 4.0759630
-11.5790262 -2.1521997 4.0169525
-7.1604118 -1.1508188 2.6638639
-10.0583239 -0.7437391 2.3296416
-10.1024942 -0.6495483 2.4650886
-9.4469299 0.9175531 7.0074334
-6.8090792 -0.0875623 2.0991828
-10.3198671 -0.9443361 2.6254630
-12.8871031 3.2670963 11.1823263
-2.5123761 0.5486240 1.6306996
0.1558451 -0.0055237 2.1157582
-11.4695921 -0.3175426 3.7324646
-11.4656668 -0.5249593 3.7622538
-7.2069006 -0.6618248 3.0058978
-9.0361824 -1.9648254 3.6707945
-9.9991245 -0.9603916 5.3825145
-13.6610422 4.2703304 16.4050083
-9.9066114 -2.2075636 1.8522364
-9.9277000 -2.4987936 1.8037977
-6.7467127 0.0441136 2.1006625
-6.7621574 0.0091634 2.1321690
-6.9090605 -0.0695256 1.9820646
-10.0425653 -0.5846636 3.9673913
-9.9437637 -2.7078915 2.3052630
-10.2759581 -0.1628021 2.3347480
-11.2104645 0.2764651 2.5314050
-11.0139093 -2.0987003 5.0830703
-10.7433624 -2.1547775 3.7970245
-11.7913094 1.4421892 7.5177360
-11.5148964 0.6669532 2.1687057
-10.0247297 -1.1718110 4.1413236
-11.2384748 -0.4269498 4.0528078
-11.0426741 0.7405967 2.2009325
-11.1178532 1.1524466 2.5386596
-11.5270500 -0.9924730 4.0203910
-11.1669149 1.0688459 2.4818158
-9.8920946 -0.2107839 2.1943803
-9.1059790 -2.3529358 1.0349175
-10.0134859 -0.4818316 2.2603366
-10.4720907 -0.7320774 2.2200270
-9.8914738 -2.0414379 2.1556485
-9.8229179 -0.1341553 2.1917992
-9.2555351 -2.4754596 1.2891754
-9.8134527 -2.5484998 1.7554418
-9.2442350 -2.4837370 1.3125906
-4.5915551 1.8565710 2.4089143
-6.7714911 -1.4655563 2.3185918
1.8205429 0.1881027 -1.8431450
-2.8211751 1.4166355 1.3290083
-3.2680380 -0.5049659 -2.9458907
-2.8083885 0.4225172 -1.3267387
-5.1280193 1.0750157 1.5286560
-3.9004595 -3.3943779 2.9777498
-2.3327355 -0.1753455 0.4996034
-6.3453708 0.2331067 5.6218529
-2.9657967 1.6553023 1.2141919
-4.1692867 -3.3389122 3.6356127
-3.2779241 0.7508670 0.7392265
-5.0685763 1.7361109 1.3817221
-1.4888353 -0.6644137 3.9835196
-4.6350346 0.7753271 1.0577000
-4.8117819 -3.5121861 5.5838609
-3.4705534 1.2289258 0.6835514
-3.9417400 -3.3998139 3.1609802
0.8340610 -1.3531724 1.4958837
-4.9515314 2.2017701 2.8653755
-2.8906529 1.2854607 3.3780587
-3.5473745 0.2321042 1.1325576
-6.1441221 1.3804539 0.3746477
-2.4204214 0.2025583 1.0100977
-6.6253705 -1.3466593 1.9641565
-8.3518963 -2.5273809 4.7169056
-8.4906111 -0.6175886 4.8627067
-8.8179874 -0.4617333 4.0157614
-4.4159689 0.6201957 1.7980686
-3.1309829 1.9257984 1.9679948
-9.8509407 -2.3287694 7.4935088
2.0287919 -3.4785433 -1.0138897
-3.5756059 1.2414234 -0.2864625
-6.6772285 -2.8586843 1.9258469
-4.9557624 0.0467444 1.5317825
-6.2203217 -0.6653550 1.1085265
-7.8813839 0.2903289 1.9497262
-1.1947937 -0.2198753 4.2723036
-7.1787353 -1.3589123 2.6683474
-2.2118394 0.7906747 2.8019378
-0.7540117 0.2561995 4.2655177
-7.8830566 0.2075517 1.8815750
-1.1554354 0.7654502 5.6981726
-6.6956167 -0.6562418 1.8123362
-6.1445031 -3.1593902 1.1498371
-9.9971733 -2.0242164 4.0892878
-6.1551027 -3.1421795 1.1508851
-8.9158516 -1.6155845 4.5415998
-8.5102911 0.5280382 2.8650677
-6.2225423 -1.7588315 1.0858605
-8.0735636 -1.8216259 3.9680295
-7.2381248 -0.7442768 2.8235321
-10.1402092 1.0259200 5.6446047
-9.9811506 -1.9336706 2.7053158
-10.1400633 -2.2391279 2.3269551
-9.8906307 -0.0210929 2.1683385
-6.7957692 0.0896047 2.3729475
-10.6499176 -0.3586499 4.5819721
-9.9505253 -2.6885543 2.2770338
-8.8150082 -2.4302931 1.6809299
-7.7050700 -1.1716669 4.4752836
-10.1608925 -0.2777887 2.2506528
-7.1673741 -2.6599274 2.9202700
-10.5902185 0.0704673 2.6310644
-10.5035286 -0.6788388 2.3052721
-10.3264103 -0.6748761 2.2122443
-9.4064541 -2.2045968 1.9009062
-10.0757093 0.0096604 2.2976713
-7.8676105 -0.9026112 3.4821942
-11.3768187 1.1878458 2.9397078
-8.4127445 0.6167749 2.9203205
1.4471760 -0.1065207 -2.1284525
-1.3858674 0.3642139 -2.4932308
-6.8176470 -3.1581674 2.8980696
-2.6863735 -0.3965339 -1.5908039
-3.3530405 1.1020741 0.6078285
-5.4779215 -3.1310577 1.7557788
-6.0478749 1.2948128 0.2375717
-2.6961462 -0.4100773 -1.6076353
2.0786104 0.0126532 0.2305017
-1.4337646 0.1967376 -2.6113963
-4.0785513 -0.8254524 3.8712208
-1.5036550 0.0064835 -2.7531831
-5.1355972 1.0393534 1.5638735
-3.0183008 1.3963397 3.7416270
-3.3587763 1.0769950 0.6092349
-2.3845458 1.1969029 1.4247613
-0.1512409 0.8378893 -2.2901855
-3.6057456 2.1971781 1.2273149
0.6142023 -0.5173343 1.7657225
1.6292782 2.1720586 0.4689957
-1.5857635 -0.0065753 -2.7940154
-2.7561011 -0.1925085 -1.6965009
-4.8725700 1.1098363 1.4717679
-5.4963698 1.9217560 1.9931338
-4.2870979 1.1797280 1.5241863
-3.4533207 1.6618670 0.7811184
-3.3688385 0.8038712 0.9492018
-2.4037421 1.6574352 2.0772216
0.7333667 -2.1584234 1.5072589
2.4330933 0.3267661 0.7106915
-2.4943132 0.0795538 0.9988630
0.9596795 -1.8874104 1.4282136
-2.4869888 1.2075638 2.4156795
-2.8171053 0.3174533 1.7215921
-2.3303101 1.6845708 2.6413491
-1.4767909 1.3597569 2.3705077
2.0043278 -3.4308927 0.0432853
-1.9106388 0.7939109 1.8103703
-2.4623456 -0.1200493 0.8540397
0.2815187 -0.6675729 2.6909318
2.6187322 0.3187154 0.6349935
-2.2215009 1.6766521 2.5913830
-3.7688456 -3.3684313 2.4901352
2.2243116 -3.7513964 -0.8254575
-3.5253189 0.5502918 0.8762333
-4.1547198 1.8929777 1.5565783
-5.9927754 0.0923961 4.9259901
-5.3347330 1.2636516 -0.1705878
-3.6438446 -2.1081381 1.8417673
0.2324665 0.4300452 1.9606248
-3.7693992 1.6866778 1.4968139
-1.2649237 -2.2663057 -1.6597540
0.8711551 -0.9807569 1.4666486
1.6863652 -3.2057180 0.2398911
-1.2307136 2.4600191 2.9154491
-4.1738906 0.5238460 2.1868410
-4.7652659 1.8548923 2.4264536
-0.0250733 -0.5523536 2.4954991
-3.8503158 0.4398756 1.7512481
-3.6078856 -0.9208370 -2.9605842
-5.5079331 4.2297888 13.5825510
-8.1511965 0.4499615 2.3929939
-9.6608734 -2.3993084 1.4742870
-9.7598095 -0.9582033 1.9005204
-8.9924479 -2.4386039 1.5290129
-7.2084332 -0.6592125 2.9997821
-11.4712524 -0.2589970 3.6692195
-10.7918634 0.5363025 2.0285456
-9.4005642 -2.1813128 1.9587758
-9.8712215 -0.6785461 1.8724740
-10.6403923 0.4328761 2.8410170
-9.3513641 -2.4670646 1.2652111
-10.3557177 -0.1976549 2.2497671
-7.2382975 -0.2620761 2.5346098
-10.0573912 -2.7120061 2.2423582
0.1249194 0.7457547 2.0553832
-0.5969892 0.0918023 2.9766290
-3.3719592 0.6941626 5.4896426
-4.8508863 2.3887663 3.0370376
0.7209905 -1.8962530 1.4285794
1.9494282 -2.0605118 0.6749086
-0.5651845 -1.1391541 3.2629857
-0.2521091 -0.1036318 2.1721551
-2.0575056 2.4252799 3.4640210
-3.4237175 1.7842327 1.7333683
-2.7674367 1.3347673 1.6827590
-2.8344631 1.4905696 1.8615021
-2.9321854 1.7529237 1.2517941
-2.3849955 2.2153695 2.3062115
-2.9809237 1.4063945 1.3029747
-3.2984743 1.1432580 0.6655347
-4.4771280 1.9418820 1.9763087
-3.2117436 -3.0313625 1.8399920
-3.3768961 0.4885004 2.1331811
-3.2539413 1.6655600 1.4801536
-3.2965927 1.1769036 0.6399020
-4.1322894 -2.1963415 3.2368572
-4.3641143 1.7688198 1.7581826
-2.4492171 0.5865286 0.6682359
1.6969837 -3.2093022 0.2501684
-1.6991788 -2.1447961 4.5543442
-8.3326797 0.4032905 2.5847580
-6.6120415 -2.9468832 2.1142969
-8.2773485 0.3296365 2.4544697
-6.8636432 0.1708223 2.3402886
-1.0080848 1.4290948 4.0723400
-7.6928573 -0.8991163 3.4512236
-3.6334512 -2.2806146 2.3127642
-12.4519863 2.2907717 10.6129217
-21.0537205 10.0015821 27.0304031
-14.1548128 4.2386618 13.9531851
1.2727703 1.5772123 -0.0287069
-3.1294065 1.2718087 0.8138628
3.4790053 -1.8708510 0.7042825
-5.2526088 0.9846384 1.6786467
-4.4043055 0.5778155 1.5194780
-1.2277036 -0.9918498 3.9116297
-10.0530443 -0.5551377 3.9903841
-10.0980568 -2.3039184 2.2764337
-9.9646091 -2.7913058 2.4103580
-10.8476095 0.7107574 2.1838453
-8.4999304 0.3714065 1.5894740
-3.9225738 0.4348797 3.7156811
-3.2802892 1.2647487 0.3212991
-4.6696296 0.8701138 1.1378031
-3.6250167 1.3388833 1.0380462
-2.0270615 1.0801320 1.7950726
-3.2982402 1.2015326 0.6645005
-4.0289249 -1.8558847 2.6673753
-3.5045776 0.0256214 0.9716504
-2.0350814 1.8433024 1.9690101
-2.2142935 -0.0164117 -0.8259379
-1.4754792 2.6275923 3.0547090
-5.1151118 1.3394717 8.4042273
-10.1258593 -2.2017744 2.2152381
-11.2329788 -2.3793459 3.3622231
-11.2719564 -1.2943422 3.4032102
-10.3336086 -0.5288509 1.8371664
-11.1225595 -2.2719431 3.1772022
-10.6740074 -0.0249939 3.4070389
-10.0818911 -0.7675914 2.2842662
-4.5269670 0.7225776 4.9343629
-0.0257542 -1.8519409 3.4716184
1.0845079 -2.4770799 1.4822975
1.8470184 -3.4140973 0.1161509
-1.9740918 2.4009211 3.2891757
-8.4718256 4.0580668 16.2110729
-8.7836428 4.4508896 14.6111946
-4.7450762 1.7959799 7.8568778
-1.9899373 0.6502395 2.2991190
-0.5268087 -1.9207993 3.3400316
-1.9680467 2.4563489 3.2304349
0.2849862 0.3866931 2.0303860
1.9735888 -3.4586747 0.2294900
-8.7179441 -0.4667456 5.2436123
-10.2628031 -0.9190471 2.3901668
-9.1174936 0.5826270 5.6689844
-9.2110109 -2.3707230 1.0514203
-10.4812593 -0.7284198 2.2098072
-9.5169201 -2.6094055 1.8645681
-9.2481451 -2.3907473 0.9606477
-8.7125549 -1.9712943 4.5106063
-9.5043440 -2.6665413 2.1769018
0.7475259 -0.8777304 1.7985126
-0.1307071 -0.4004384 2.9704771
-2.2869401 2.8957646 4.1507716
-1.5637970 2.5726953 3.7334034
-1.7465469 2.5053718 3.8134675
-1.1637720 0.1835760 4.1674418
0.4496506 -0.1114331 1.7181215
-5.5019236 0.2031755 5.5096612
-4.6068244 2.1454358 2.1339252
-4.6065679 1.7671082 1.8440751
-5.3004088 1.2854527 1.9794701
-5.3144484 1.2422298 1.9464071
-4.6149430 1.5809156 1.7136527
-3.7243621 0.3455226 1.2188079
-2.8388121 0.2932274 2.0483625
-1.3447318 -0.3049139 5.1609182
-0.6588913 -0.8441603 3.5097301
-11.0466890 0.3702116 2.2669141
-9.8632078 -0.4273691 2.2402604
-10.8191109 0.6199573 2.1055675
-9.9131174 -2.2210581 1.8653702
-9.7945499 -2.6017683 1.7743979
-10.0298357 -0.3996873 3.9508913
0.1436896 0.0478060 2.2688749
-5.6000218 2.0846081 2.0637937
-4.7432456 0.5762337 2.3912089
0.2290985 -0.2040837 2.6268973
-6.7050734 -2.8836939 2.0234945
-12.1768255 4.0011406 14.1159105
-6.5681915 0.1474627 2.1399288
-9.5685911 -0.1913198 3.4946489
-9.0867481 -2.3851614 0.9870502
-9.8091726 -0.4162755 2.3312190
-10.3769636 -0.6261941 2.3110693
-7.1649170 -2.6645780 2.9558885
0.0832596 -0.2804408 3.8539486
-4.2751403 1.2344760 1.5621977
-4.6741776 1.7304580 1.9963590
-4.7144508 1.5086017 1.8025111
-3.1078930 0.4408863 0.8858911
0.1387219 2.8357098 6.7581363
0.3309349 3.0342569 7.0883498
-5.3938394 1.2071245 2.1370347
-3.3563221 1.1004171 4.1213326
-0.6675853 1.0275552 3.2090528
-7.2245512 -0.7699913 2.5701609
-6.2347379 -2.6022465 1.4885498
-2.5431268 0.8201260 1.0004836
-3.4887927 -3.5435891 2.4267583
-0.7864410 0.9775743 3.0562501
-4.6970749 1.6592504 1.9191359
-3.1982622 1.8339820 4.1487350
-3.0976040 -3.5725434 1.9092225
-6.2540727 -0.9927905 1.1640539
-5.2915320 2.3075573 10.8689451
-6.5565271 3.8284905 15.0726576
-6.3200455 -2.5690498 1.5677764
-2.5228941 0.2598756 1.2520292
-4.2200580 0.5198666 2.1794469
-6.3678689 -0.6624066 1.2740588
-2.3752489 0.4516889 1.4860818
-4.2880139 1.6266606 1.4730564
-1.4923989 2.1378016 2.9602096
-5.9261575 0.7915403 4.4308953
-6.2040133 0.9010314 5.8458805
0.6758478 -2.3392594 1.0043777
0.4778365 -0.0020232 1.9472834
-5.8341050 -0.7772356 4.5754929
-1.9491289 2.1589818 1.7871622
-3.8166451 0.3909945 1.7111739
0.0952942 0.6361039 1.8328602
-2.8997197 0.5985712 1.1631781
-3.5752838 -2.3071496 2.3890729
0.3863081 0.2504582 1.7407870
-3.9579997 1.7487770 1.3304752
0.0189023 0.0911042 2.3957560
-11.1072798 1.1633726 9.3831444
-9.8801022 -2.0279679 2.2358592
-7.5928121 -2.4498487 3.3491807
-9.6595478 -0.4451810 2.0543149
-10.6536179 -2.1891959 3.0000069
-10.6112442 -2.1967709 2.7703221
-11.4400043 -0.4733810 1.6845511
-11.1788874 -2.4130378 3.1430225
-10.0010891 -1.8854966 3.2798314
-11.9615326 0.8331852 5.9767628
-9.8968611 -2.1457500 2.3698325
-10.5747385 0.4452032 2.7397232
-6.7491355 0.0196839 2.1391401
-9.5599298 -2.3712349 1.5986739
-9.7676401 -0.5206734 2.4790683
-6.2663188 -2.5957346 1.5542493
-4.8791304 0.5877692 2.1786113
-3.8604529 2.1373036 1.5308639
-5.3070359 -2.8474295 1.2876583
-2.4274814 0.1994951 1.1389931
-3.5370147 0.8692634 0.9026865
-8.7022934 2.1785455 4.1850109
-7.0250521 0.5146944 2.0835314
-8.3331604 1.7282544 3.5942836
-3.9216974 -3.3589177 2.9800477
-6.7943792 6.5885673 19.9923019
-3.2943182 1.6274186 2.1508279
-5.3562655 -3.1667314 1.5150746
-5.8529010 -0.7465614 4.7075000
-3.5123744 -1.7207623 1.8302610
-11.5000381 -0.7473355 3.9021888
-9.4063463 -0.9412336 2.7186499
-15.9174175 3.2711828 15.5577784
-8.8680468 0.2041845 4.3643713
-9.4597998 -2.1458607 1.7203963
-8.8480368 -0.5272073 4.4420753
-9.5990553 -2.3467543 1.1379167
-9.6897745 -0.2178075 2.5574334
-10.0480909 0.0157839 2.1703696
-9.6074848 -2.3514347 1.1697406
-10.2877207 -0.7427855 2.0917110
-11.6026163 -0.6219122 4.0149150
-0.8788537 -1.2031690 3.9583910
-15.4685431 12.8159752 31.3962555
-0.2853833 -0.5654167 2.9151397
0.2950233 0.1658953 1.8722823
-6.6488605 -1.5805755 1.9080495
-3.1584694 -3.7355888 1.9670866
-5.4036183 -1.6748868 1.2373497
-5.4097147 0.5161777 1.3188081
-4.9576507 0.0520804 1.4415694
-3.9721022 1.7302372 2.5633683
-3.6136296 1.9961965 2.5982761
-3.7938030 2.1499169 2.9378502
-0.9961865 0.0370943 3.8618586
-4.9927778 0.1740493 1.2736512
-7.8370709 -1.8101310 3.9256532
-4.9765878 -0.0026738 1.3830497
-6.2074175 -1.7823535 1.2511356
-1.1082567 1.2025499 3.4212077
-7.6243906 0.0006048 1.4967073
-1.3165841 1.0702702 3.8157527
-8.8541603 -0.1803607 4.1111279
-5.3498287 -3.1705799 1.5051919
0.1742820 -0.4471163 2.2685134
-6.5973868 -2.2855318 1.9920708
-4.2681088 1.6802419 1.5090158
-4.6885662 0.2246459 4.8540092
-2.7260792 1.1154455 0.9970267
-6.8620620 0.3080561 1.8028686
0.4271277 0.2632557 1.7682655
-5.5363650 1.7455181 1.7800535
-3.3754079 0.8674276 0.8836147
-6.1905026 3.2161703 11.9564905
-5.8448577 0.6518905 4.2037754
-20.3843708 15.6443682 38.3870888
-10.0463915 -0.2278186 3.9548345
-6.7460470 0.0063135 2.2261908
-9.7126112 -0.3429687 2.1880128
-6.8121972 -0.1393339 1.8722346
-7.1403260 -2.6799917 2.7767153
-9.1093407 -2.4466951 1.1286190
-9.5802650 -2.6463051 2.0627751
-9.7866106 -3.0231051 2.1753812
-10.0095940 -2.0268095 2.6562958
-10.3767500 -0.0052641 2.4044938
-8.9223566 -0.6957187 3.9951518
-10.0280552 -2.5444605 1.9202265
-15.6405315 2.6532431 12.0479803
-10.3860788 1.5109665 9.9244986
-6.7335587 -2.8881185 1.9980379
-11.4262266 -0.3705500 4.0219283
-12.1950006 0.3950098 6.3858762
-8.8678379 -1.9145830 3.7854953
-12.4662828 0.2060734 6.0029697
-11.7286615 2.9223828 11.8274069
-9.1303902 -2.4404612 1.1987407
-6.5103455 -0.3395444 1.9533447
-8.8324966 -0.7671641 5.6588917
-7.2081947 -1.2201029 3.0497525
-9.8025637 -3.0296750 2.2340434
-14.9046192 3.4420648 11.0962172
-7.2150631 -0.6670840 2.9949956
-19.4651852 8.1119394 46.6565475
-9.0091305 -0.0152754 4.1201863
-10.1545315 -2.0364566 4.0499134
-10.1554613 -2.0526388 4.0661292
-7.1922851 -1.1591260 2.6439862
-6.8874645 0.0071390 2.2779098
-9.9250631 -0.4797033 2.3147407
-11.5252485 0.1156625 3.6110604
-8.9366617 -2.3322184 1.2145563
-9.7341442 -0.8632769 1.9026644
-9.9508877 -2.7549324 2.2345123
-10.3775826 -0.6605892 2.4747627
-10.1754150 -2.0042157 2.2661173
-3.9137638 -1.7884004 2.3663859
-6.6642299 -1.3824534 1.9040154
-7.9063892 0.2278865 1.9218783
-6.1949577 -1.5808972 1.2211332
-4.4389629 0.3928141 2.0270145
-1.6588576 0.6742608 2.2132080
-6.2297516 -0.7555194 1.0780015
-3.7238765 1.8109655 2.4146795
-5.3699799 -3.1539361 1.3192674
-3.9464540 -3.2563016 2.9906902
-1.4551238 -0.0926707 4.6932063
-6.6249313 -2.5240049 1.8772548
-7.3186312 -1.3025370 2.9586463
-9.6356974 0.6803076 3.0240574
-10.2106133 -2.0560853 4.1596670
-7.3322778 -0.1698040 2.7501099
-7.2721152 -1.0937220 2.7067759
-24.2327366 8.2394295 26.0673218
-9.8631468 -0.2735613 3.8051674
-6.0068851 -0.9370187 1.3440368
-7.2871957 -0.6715784 2.9290946
-9.0953617 -0.2108995 3.2953870
-8.4966116 0.5348670 2.8779025
-13.3065634 4.8282003 12.6557217
-11.7631721 2.9822774 9.2082863
-10.5204172 1.6736084 6.6796250
-9.4501457 0.5668454 4.5426173
-9.4489021 0.2505483 4.0188217
-20.8426838 9.4122982 29.6506100
-16.7955780 9.5882483 27.7764606
-10.5812588 0.6402435 5.1325407
-8.8942099 0.1678773 4.0635633
-11.3079662 3.3309765 11.5080547
-13.4153719 5.4038401 15.2839632
-12.6135817 2.6096339 10.4564648
-7.3866930 -0.4718648 3.2336037
-7.8592811 -0.3199314 3.4158957
-6.8055491 0.1289640 1.9141741
-8.8245783 -0.5649904 4.1067510
-6.6297908 -2.3069730 2.0139413
-3.9057262 1.4654480 2.2269964
-6.7635846 0.1286998 1.8226703
-5.3733411 -3.2004225 1.3677982
-4.1308546 1.0592765 1.5657654
-8.9942579 0.0057560 3.8920095
-6.1612787 -1.2259631 1.5831350
-7.3765616 -0.5098783 3.1457217
-6.1035247 -1.1113456 1.7743558
-6.2975578 -2.5053694 0.9879616
-4.9596415 0.0822218 1.5784163
-8.8535681 -0.0266593 4.0027771
-3.9331489 1.4408256 2.2229242
-7.6569252 -2.4251096 3.4703345
-2.6647830 -2.3071778 3.2096179
-4.0296783 -1.4183416 2.6436682
-8.8207426 0.0189448 3.9482985
-2.5380309 -3.7454545 3.4416440
-1.4747831 -0.1992279 4.4142890
-7.8731608 0.4531061 3.3540363
-13.0236387 3.8309150 12.8864069
-6.8404222 0.1175562 2.3470941
-3.9383302 -2.2008936 2.9588244
-6.2889495 -0.7533222 1.1949943
-0.6636462 0.0272252 3.2482121
-2.3259597 0.2564447 1.1742240
-4.7038107 -0.5137473 5.0265141
-3.6419578 -2.0863585 2.1164234
-6.0709019 -3.2745519 1.4675230
-3.5302360 -1.7303426 1.7878623
-2.7580211 0.3419130 0.9714729
-6.0389957 -3.2495224 1.3897299
-3.3639154 0.2190265 1.2087617
-2.3403213 1.4602591 1.2120163
-3.2325964 0.8048649 5.0150728
-3.4583390 1.0435077 1.6146356
-1.0586553 -1.1241871 4.0455036
-6.2183242 -0.9424862 0.8737774
-5.5581584 1.7439160 1.8366643
-5.4781165 -0.7243170 1.6673307
-6.2404771 -0.8159631 1.0569990
-6.7719340 -0.7768437 1.8803421
-3.8882792 -1.7846682 2.3970191
-3.8171232 0.4365661 1.7118737
-3.5450568 -2.3017311 2.4663131
0.4318945 1.9433339 6.7721305
-2.1174340 1.5650836 3.4458482
-5.0122914 1.5551879 1.4213593
-5.4402690 -1.5962619 1.7222275
-5.4141402 -1.6986910 1.2005928
-9.3932199 -1.9118096 3.7383816
-8.7764893 -1.5924008 4.1295714
-8.8578072 -0.0341137 4.1405888
-8.8655920 -0.6316548 4.3280892
-6.0644169 -3.2080746 1.2332367
-6.6977305 0.1282440 2.3559682
-8.9131536 -0.6501694 4.4159412
-9.9516487 1.5204338 6.4888029
-6.0837831 -1.0207196 1.5275056
-8.7360964 -1.4401925 3.9438825
-9.0721426 -0.9952607 5.0992498
-8.9355907 -1.2307765 4.5886669
-7.8266320 -1.1014075 3.6256649
-7.2707005 -1.5433440 3.1748602
-7.7865615 -1.6429892 3.4135373
-6.1223798 -1.0513053 1.4980676
-6.6502285 -1.3860471 1.8825824
-10.1312141 0.9195250 5.3046770
-7.7949815 0.6265939 3.2025888
-9.7465734 0.2900155 5.4650583
-6.1410079 -1.2545944 1.6055741
-8.8694172 -1.4332932 4.3409128
-7.3083506 -0.2179740 2.6416786
-3.5139015 0.7416487 2.5341973
-2.5182734 0.5358162 1.6854904
-4.1591291 1.7278596 1.4333608
-4.0324244 0.7916325 1.4417266
-4.6095877 1.7829124 1.8595518
-5.1243620 1.7399266 1.2933388
-0.0985502 0.5184454 2.5370684
-5.4123755 1.5102272 1.9747629
-6.3060060 -0.7830326 1.1251960
-3.5377445 0.5934483 4.7721348
-2.7339439 0.9767054 1.0017824
-3.9225802 -1.8900839 2.3102872
-6.7115092 -2.0681453 2.0988083
-3.8510551 -3.3814738 3.0251741
-1.8075207 1.3738850 4.5112414
-5.3872075 0.6370809 1.4243487
-5.4303741 -1.4084352 1.1687393
-3.8411040 -2.2956371 2.1005559
-1.5773902 -0.1825905 4.8228116
-4.0569749 -1.4594569 2.5581379
-3.5692909 -3.5472109 2.5641716
-2.9536953 1.7556677 1.4811167
-3.7686880 -1.5136862 2.5136662
-7.3844409 -0.3345376 2.8109515
-9.3382521 -2.4652438 1.3329357
-11.5037975 -2.9874504 2.6648633
-10.5289745 0.5099905 2.8162603
-10.0026941 -2.7438600 2.1232932
-11.4527044 -0.1913971 1.8492625
-11.4612083 -0.6471526 3.7342148
-9.7565174 -2.6726971 1.7412187
-11.4454174 -2.9687347 2.5778911
-12.3302832 1.4553146 8.7622948
-5.4285684 -1.7116390 1.1120178
-5.4044590 -1.6791134 1.2243712
-8.7122097 0.3866674 3.6710594
-3.2553120 -2.3905251 1.6692774
-6.2427921 -0.7648290 1.0770983
-1.8576605 1.4193438 4.5104790
-7.6666908 -2.4477477 3.5641963
-1.6467059 0.3233624 4.6663156
-6.7018256 -2.8567469 2.0771155
-7.3296943 -1.2047616 3.2898171
-3.5046594 -1.6623200 2.5847130
-6.6063004 -1.0797371 2.7486839
-7.2870250 -0.4938245 2.6452246
-9.7822313 -2.0776951 3.7855437
-2.9398630 -3.8065202 3.2192192
-9.8985605 -2.0569644 4.0116482
-8.9633293 -1.8320839 4.7391858
-9.6198673 -0.4383883 4.8579798
-10.1317358 0.3215587 4.0563412
-7.2618375 -2.2789607 2.8814602
-6.0244818 -0.9877929 1.7818584
-9.1147823 -0.6487249 4.1809554
-7.8778658 0.3634577 2.0474417
-7.9934177 -1.1185107 4.5169649
-6.1725478 -2.5566587 1.1188691
-12.3762798 2.8827274 9.5667715
-11.5950251 0.8694904 7.3577971
-9.1773167 0.0225846 4.4484768
-3.7155111 1.6835135 2.4496169
-9.9667683 -1.0523405 3.9703615
-9.5098515 -0.8720046 1.4723378
-10.3394957 0.0789249 4.1359029
-7.6833611 -2.0464261 3.5030282
0.7572495 -2.2046585 6.0757737
-6.6038618 -1.3157822 2.0487773
-9.1306200 0.0731466 4.9453416
-6.1665463 -3.0998554 1.3138196
-6.7200780 0.0835447 2.2275534
-4.8110542 -0.5334088 1.7612146
-2.3714316 4.0303793 2.8453200
-1.1449533 2.3527274 4.8686728
-4.1279206 -1.3514154 2.9341748
-6.7554436 -0.4681006 1.8319981
-2.1876650 1.4927549 3.3791344
-3.8409922 -1.3895221 2.9876914
-5.3731441 -3.1535897 1.3128568
-7.4113579 0.3138875 2.7062509
-1.3094622 -0.2769853 4.3994427
-6.1773987 -1.7700793 1.2201524
-8.7503414 1.0010751 12.2355032
-10.0665817 -0.4402087 4.0519810
-7.6791654 -2.0111010 3.5655236
-8.8500519 0.2331627 4.3994999
-11.0738344 -2.1896441 3.1657333
-11.4525461 -0.4271101 3.9419146
-10.5521936 -0.5500306 2.5020716
-8.8379707 -0.7604399 4.3662868
-11.3891230 -0.0548622 3.2304065
-8.8492899 -0.4269318 4.3418875
-9.6654167 -0.2923470 2.4278359
-7.8275490 -1.7448633 3.3604031
-7.3474936 -0.1916148 2.6987324
-4.3799491 1.6011181 1.9007640
-5.9560289 -3.1057193 1.7176337
-6.6920080 0.3282607 1.8032032
-6.1971698 -1.7220960 1.1796944
-11.3809242 0.5928632 2.8637478
-9.9567385 -2.7649548 2.2820959
-11.2666388 -2.2456110 3.6000872
-11.3173723 -1.2346979 3.5155745
-9.4690437 0.7137772 7.7068396
-11.3963995 -0.9672524 3.6424265
-9.1122303 -2.5810337 1.5814784
-9.6612835 -0.3603249 2.1442761
-10.1144352 -1.8391634 3.4004681
-9.9890213 -1.3206351 3.9537454
-9.9827118 -1.4802885 3.2975562
-10.1078081 -1.8394997 3.3937914
-10.0661259 -0.5234820 2.1026223
-8.6244211 0.1959921 1.5228356
-9.0786028 0.4175312 2.2108128
-8.6313143 -2.2802622 1.7471504
-10.1132813 -1.8388716 3.3701520
-9.9080076 -0.0764075 2.1736970
-8.7021132 -2.3329432 1.5698473
-10.5900784 0.0994526 2.6992319
-7.8797750 -1.3671597 3.5959556
-9.5616379 -2.3572383 1.1798290
-8.9417572 -2.7550013 2.0345960
-10.0481186 -0.4926467 2.2336679
-7.1482987 -2.2745988 2.7507582
-10.0457201 -0.4547206 3.9453907
-6.8007584 0.0462607 2.3293381
-9.6159048 -2.3291414 1.2505426
-10.1752758 -2.9108315 2.8644209
-9.1311045 0.2001355 3.8099580
-6.4109120 0.2683484 2.2475345
-9.7217331 -2.9521105 1.9788767
-9.7177801 -2.9504085 1.9593014
-13.1121826 1.3699728 7.1347351
-11.4938135 -0.2325894 4.5216403
-10.0801811 -0.3494492 4.0886359
-10.7266092 0.5039865 2.8589227
-9.8080196 -2.5954280 1.7362279
-7.8515959 -1.3495867 3.6635149
-10.0392704 -0.0162840 2.3774989
-11.3376904 -0.7502009 3.5227923
-7.3225470 -0.5943747 3.0633824
-11.5777979 0.1261340 3.9091969
-10.2873087 -0.7421899 4.1358771
-10.6658392 0.3198899 2.9496872
-7.3231869 -2.6405118 2.6285560
-9.0736580 -2.4167461 1.2756977
-11.2824154 -0.5714169 3.2928200
-19.7260914 18.6559792 42.2452087
-9.4407368 -2.1868486 1.7613226
-11.3614626 -2.2977006 3.5314696
-10.9104118 -1.3317635 3.7282252
-8.6107826 1.1824536 12.7365179
-9.6623116 0.0960718 4.2533121
-10.3426189 -0.1395142 4.2376986
-7.8403940 -1.3279048 3.6016786
-10.2268896 -2.1526725 2.4371688
-10.0657988 -0.1219102 4.0080762
-9.9229727 -0.8675758 2.0020518
-10.9344521 0.7376255 6.0200129
-8.3381500 0.5012150 1.1591601
-9.7847977 -2.5298409 1.9493563
-10.2932806 1.5758438 8.5827131
-9.6599960 -0.3901165 5.0033169
-12.0334101 -0.5881610 4.6862640
-8.8319330 0.4987213 1.9889059
-7.2220516 -0.4557877 2.5657985
-6.1044998 -3.0734105 1.4631299
-7.7106795 0.0067618 3.2772400
-20.4599419 8.2614470 23.3780251
-8.5035725 0.6022558 1.1663905
-3.4486530 1.8078973 2.4448011
-6.3825741 -0.2431506 2.4954038
-8.3836470 1.1566356 1.5197701
-10.0967798 -0.6371805 4.2165127
-9.3576193 -0.0882522 3.8174787
-6.1541486 -2.5061452 1.3024174
-3.4790647 -1.5358307 2.8333786
-9.2234697 0.4920144 4.3932881
-9.7263889 -1.2359502 2.1658297
-4.2415795 0.2696452 2.0003259
-8.8320332 0.4570405 1.9649982
-9.8192272 -2.0305502 2.6144178
-5.3651280 -3.1627853 1.5086840
-9.3144951 2.1218565 2.1766212
-7.9113421 0.8655086 1.2494494
-10.8352718 -0.1706413 3.1577475
-10.1020393 -2.3217680 2.4636402
-10.0008402 -2.3309777 2.2882884
-8.8624420 -0.0410255 4.1571412
-7.2916417 -1.3229401 2.9595585
-8.3492413 0.3477536 1.0466168
-9.3525095 0.5974159 4.1642532
-9.6258173 -0.0354667 4.9170995
-2.2652929 -2.2657406 3.5861628
-10.9792328 1.3191960 8.1242437
-11.7793026 -1.5238191 5.5490260
-3.2013707 -1.7471528 3.1049066
-8.6182423 1.8015232 4.4577160
-7.7720413 -2.2260668 3.4367168
-10.0272789 -1.9348056 4.4321871
-9.5569906 -2.4516566 2.0707135
-3.9614489 1.3378441 2.0260108
-2.5132461 -2.2672513 3.3781981
-12.4616585 6.1410913 17.3018436
-8.3207893 0.7065630 1.0867488
-8.3249331 0.8471402 1.3048905
-9.6928978 0.7854401 3.1302793
-8.9382000 0.7859426 1.2890996
-7.2062674 -1.5090640 3.4821525
-10.0311947 -0.2998861 3.9222035
-9.6459484 -0.2254297 2.5514731
-10.1083736 -2.3934715 2.4665504
-10.2732506 -2.8943186 3.3441219
-3.5894582 -1.7661979 2.8159847
-11.6016970 -1.4668386 5.8757443
-11.5501118 -0.7942867 5.8291721
-10.1340714 -2.5580525 2.1601393
-10.6982355 0.5197741 2.8638470
-11.2940445 -0.7795013 3.8144975
-13.6046047 1.6663527 8.2836857
-11.3531275 -2.2322607 3.7307503
-11.4798536 -0.4850113 18.5568943
-10.9185209 -0.6226807 3.4161234
-7.6640196 -2.4449503 3.5669959
-6.5709653 -2.9492390 2.0206447
-10.2992973 -2.5955479 2.4890270
-10.8294678 -3.1081734 4.0695691
-10.6816692 -1.0862224 3.3260562
-10.0623083 -0.0718257 4.0057068
-11.6882229 -0.2417915 4.8734655
-15.1352816 5.0117302 15.1811829
-10.3373566 2.1902978 11.8388948
-8.9382076 -2.3501470 1.2084390
-11.9556675 -0.3286472 4.7607083
-10.4241838 -0.3420940 4.3532825
-10.4216623 -3.0968757 4.6909156
-8.0260429 1.0823261 1.5298011
-3.5332565 1.7310959 2.3611898
-10.0740156 -2.5282388 2.4633722
-3.7187064 2.0885317 1.7694832
-10.1547508 0.1847181 2.6980031
-10.6663151 -0.4594373 2.6773314
-4.3545032 1.6443025 1.9285252
-6.8418784 0.0554434 2.3052139
-12.9946327 -2.0328014 7.8274841
-12.0472183 -1.4572462 6.2098150
-12.3745537 -0.6267881 17.9234047
-7.3768010 -0.5966647 3.0211849
-8.2617235 0.4293245 0.8588838
-10.1015110 -1.9056209 4.5978336
-0.3525099 -0.7962298 2.6699433
1.1291156 -2.5099523 1.4549681
1.0105984 -2.1504755 1.5946301
-0.0553102 -1.5063711 2.4138107
-10.2116222 0.0945311 2.5461276
-6.6668510 -1.3940502 1.8720177
-10.4412699 0.0545210 2.5979285
-10.5122690 -1.8992350 3.9510581
-11.3743868 -1.6448002 4.8456960
-13.2629108 0.3954354 6.9469252
-10.1581612 0.1582537 2.4594622
-11.2494059 -1.0904528 13.1258364
-7.1100426 -2.3276980 2.7889230
-10.3751736 -3.0109947 3.3006699
-6.6136613 -2.8985422 2.0562112
-11.2335777 -0.4547729 5.2073426
-10.3253517 0.9516517 7.1787539
-11.4675741 -1.6916469 4.9825726
-13.8487148 1.5526557 8.5228758
-22.7881355 13.5510645 33.2912827
-9.7309132 -1.9055288 5.1804862
-10.3036022 -3.0487459 4.6566215
-11.4975681 -0.1905026 5.8643703
-13.6102638 1.0944670 7.4682732
-11.1436234 -1.6122504 4.8337789
-15.4769049 10.0678234 28.4385777
-9.8737774 -3.7130153 3.4848821
-7.7664371 -0.0817728 3.8667459
-10.4868670 0.2436428 2.6413658
-10.1338978 1.0807143 8.9648504
-8.4383583 0.6430977 1.6723601
-10.1414185 -0.1872672 2.5476563
-9.7772560 -0.7842025 3.8640959
-7.7147017 0.0246705 3.3512521
-11.1896248 -0.5842702 3.5055022
-10.4651356 -0.9069456 4.6785736
-8.8521881 -0.1874924 4.1575003
-9.9281673 0.0981958 2.5143068
-10.4356852 -0.1345275 4.1951075
-9.2859640 0.4827795 4.9654655
-13.2915783 2.2309942 9.7249584
-6.7271414 0.2750923 1.7256175
-6.6303177 -2.2965870 1.9941161
-9.9640093 -0.2413999 2.6733596
-9.5384922 1.9274778 2.1235836
-10.1506777 0.1522991 2.4714568
-9.2660933 -0.1353874 3.2137372
-9.5511341 0.8348292 4.9696808
-9.9576645 0.2633786 2.4973841
-7.2331781 -0.2435436 2.5391984
-1.7742581 -1.0580660 4.2325416
-9.8059578 -0.8506412 2.8182828
-9.1651220 -2.6149726 1.5543073
-12.4206724 0.3441381 5.3476911
-8.1026325 0.8190255 1.1066875
-10.5919104 -0.3334526 2.8388469
-8.0071030 0.7496702 1.1586941
-10.3171978 0.0194610 2.6770480
-9.6099253 -2.3382518 1.7657862
-7.8285375 -1.1986588 3.3816867
-10.5600863 -3.3679709 5.4162874
-8.1565342 0.8882204 1.5118556
-8.4194126 0.5591021 1.6118058
-9.5947056 -2.9603844 2.2745621
-9.8020439 -2.0108135 3.8148282
-10.5430689 0.7320676 6.7837849
-6.7250204 -2.0881071 2.1120191
-6.6100988 -2.5102334 2.0437191
-6.1231613 -3.1352198 1.3623898
-7.8285837 0.1480623 1.8211904
-7.2850947 -0.5171618 2.6022556
-10.4560938 1.0196966 7.5083952
-11.3441010 1.7165610 9.1884842
-7.3940477 -1.4637637 3.3576307
-7.2539306 -1.8870946 2.8301375
-0.3965669 -0.6127786 4.7750406
-7.8866668 0.3587232 2.0550170
-7.8812881 0.3681904 2.0598996
-6.2001300 -3.0794671 1.2317991
-8.8183022 -0.6000584 4.0586424
-8.9807997 0.4124591 2.1252055
-6.1849885 -3.0878749 1.2497158
-10.1903419 1.3624532 3.8837147
-10.0795527 -2.0120330 4.3386064
-3.3967583 -2.1311548 2.6893251
-6.6937361 -1.4032524 1.8249596
-6.7207842 0.0893576 2.2283986
-14.7914324 1.0269364 10.0173950
-7.3624921 -1.4741518 3.4394798
-7.7921581 -1.6873584 3.5295508
-9.9267530 -0.3506438 5.1143517
-10.3058443 0.2332192 2.7142987
-11.9110632 -0.3788694 4.4564905
-10.0624180 -2.0097389 2.8176880
-7.3590140 -1.2819746 3.0773726
-9.0863276 -0.3160045 3.5951366
-10.5674620 2.9936879 10.0017519
-10.3222113 1.8059448 7.6416292
-6.6290293 -2.2989535 2.0166848
-1.6218147 3.0423458 4.2377195
0.4492614 -0.0844394 2.0584593
-7.3249488 3.4298480 12.7658501
-3.7598355 0.9699745 2.8518264
-3.4804633 -1.7692739 2.9038053
-2.4608743 1.9225384 2.2595713
-3.8674991 -1.3156139 3.0700924
-3.2152565 0.8498225 2.6287179
-3.4168220 -1.8061095 2.6344821
-0.6773574 -0.1696341 3.1535892
-1.1714264 2.9707828 3.7589366
-1.1676466 1.3618039 3.7019296
-1.2886809 -1.3960581 5.0017653
-1.5130559 2.5885363 2.9937654
-0.3095034 0.7264555 2.7320907
0.5439491 -0.4458497 2.0929496
0.6512043 -0.2850743 1.7782571
0.1892889 0.6755905 1.8706623
0.9529485 -1.3608644 1.5971267
-1.6233022 2.0095575 3.2543812
-1.7465301 2.5586216 3.8593113
-3.0084567 0.3462122 4.9909673
-0.3841807 -1.0309987 3.0263054
-4.6338749 1.0882499 3.0984313
-3.2363102 0.8196841 5.1371870
-0.3452859 -0.7912520 3.1104445
-9.5743160 0.4768867 4.2865939
-9.1770306 0.1276477 4.5241675
-7.2660074 -2.2358654 2.8835199
-1.3484128 0.2051992 4.2750497
-6.1872048 -1.6163104 1.1360837
-1.1293693 0.5232710 3.9492021
-3.5846334 0.4818376 2.2169435
-1.5952876 1.9445646 4.4002094
-7.6665878 -1.8550845 3.4518321
-7.7087693 -1.8375713 3.6184742
-0.9858606 -0.7940815 4.3063045
-2.9847708 -3.7466400 2.9070239
-1.3997639 0.4177081 4.8458195
-7.9972825 0.5080528 2.0802965
-1.3408356 0.7452741 3.7679498
-8.4292326 -2.8883572 3.6017492
-6.1839724 -1.5878880 1.2011942
-10.6865864 -1.5881306 6.5555358
-1.5861421 -0.0740861 4.8902617
-2.6577020 -2.1685607 4.7443156
-9.2695856 -0.0071041 3.7171855
-6.6973934 -2.4676397 2.1520565
-3.7742782 0.4680603 1.7540143
-7.7947102 0.0390056 1.7244459
-5.0244532 -0.0408646 1.4894394
-9.2994471 0.1712051 4.0334005
0.9963253 -2.2566373 1.4456853
-4.3009515 0.6796240 5.5406637
-4.3478475 0.1178244 4.6128345
-1.9147688 1.6577682 2.7577558
0.5308181 0.0041633 1.9574699
-1.5819253 2.7508829 3.9130023
0.9503649 -1.4050986 1.4846730
-0.1785216 -1.1947874 2.5910451
-22.9701862 16.8263931 41.4783516
-4.3074355 1.4896516 5.7534995
-6.1628017 -2.4743619 1.3255947
-6.3483310 -1.0751413 1.5334960
-0.6654060 -0.9030766 4.1867533
-6.4140182 -0.9855926 1.7130995
-4.3227730 1.2081014 2.0729125
-4.4181151 0.9545470 1.8742301
-7.2701941 -1.1505505 2.7264068
-3.4788425 0.6818318 2.0220113
-3.5656981 0.7209820 1.2819449
-6.1364202 -2.4700043 1.2623006
-3.1988893 1.7856826 3.7679060
-1.8124839 1.0156426 3.1568336
-2.2924118 -2.2420347 2.5836411
-3.1511524 1.8477793 3.8482373
-6.6034431 -2.5233083 2.0253980
-3.1105244 -3.5756607 2.9264326
-8.6099052 -2.7881906 4.7343225
-5.4326844 -1.0308592 1.2380048
-4.1603618 -2.2033577 2.6002004
-7.1667442 -2.0764995 2.7994912
-6.6955237 -2.2715995 2.0971186
-6.6150942 -2.8151712 2.0290897
-7.3609028 0.6287942 2.6433656
-6.7123523 -0.6317992 1.8559794
-3.5414743 1.5101551 5.2029257
-4.1778936 -1.3624920 2.9295480
-7.1429267 -2.0788457 2.7298803
-6.2326341 -1.0620805 1.1878836
-6.2618318 -0.7480264 1.1150345
-7.1726236 -1.3688045 2.6609871
-3.1499403 0.9882192 2.6499579
-4.0321112 -3.2225997 3.0401883
-1.5338351 1.3591979 4.0570688
-4.1679573 1.5154223 2.2986684
-3.6002109 0.5879988 1.9586792
-7.8465595 0.7299618 3.2755508
-7.2533278 -0.2016452 2.5685840
-6.4238329 -0.9661143 1.7356482
-3.7345839 -2.3025331 2.2032950
-2.8753841 1.0248834 2.9233766
-6.6630950 -2.9054897 2.1878273
-6.7646646 -0.7646172 1.9663945
-6.6560130 -1.5699501 1.9256725
-1.4243951 -0.1056000 4.6316023
-6.2210803 -0.7244408 1.1102884
-8.4899206 -3.4440048 4.1063447
-7.3607140 -1.3033320 2.9428859
-0.5970384 -0.4241747 3.0271165
-4.7579451 0.5777951 2.3930693
-3.1989315 0.6143184 3.2658741
-4.8169746 0.6674661 2.4993842
-6.6344690 -1.5880922 1.8889958
-7.6170917 -2.0510881 3.3706143
-4.0268869 -1.9110322 2.1334333
-3.1567364 1.7922338 3.8315561
-6.3674846 2.7255890 10.2622910
-1.1547897 2.7022800 3.5234880
-7.7627015 -2.6106789 3.4731805
-2.5558679 0.8564856 0.9981276
-3.3043921 0.2012953 1.1880791
-0.7381895 0.9935486 3.1445982
-3.3660598 0.0575102 1.0144470
0.1518971 -0.5494815 2.1837583
-4.0388784 0.6950139 1.3467002
-3.8226259 -3.4354789 3.3070521
0.3715757 -0.4009228 3.6428733
-4.2562842 1.5620600 2.4463930
-2.5256255 0.7740511 2.4885724
-3.4327910 0.0675605 1.0381829
-1.3146197 -0.1328788 4.7046499
0.1656540 -0.4971941 1.9751068
-6.9680834 3.5040543 14.5464230
-3.3444231 1.3495077 1.9763466
-2.5796993 0.4868155 2.3841889
-0.7029194 -0.8649929 4.1523628
-1.4623932 1.4883376 4.7213349
-0.8002911 2.0947981 5.6186523
-4.9010715 0.5827687 2.1748772
-3.8589518 1.2093316 4.7483454
-1.2596984 -0.3553387 5.1720181
-5.4393268 -1.2470516 1.1163452
-3.3410590 0.7561505 2.6689029
-5.4182787 -1.3827764 1.3243037
-5.9624610 -0.5954097 4.9809856
-6.8652868 7.1986232 20.0499344
-3.6267529 -2.2763276 2.2694485
-4.7641883 1.4697727 2.6410205
-6.0299277 -3.2043891 0.9269404
-4.8185763 1.0835115 2.2003162
-3.2481053 -3.5794501 1.5626529
-0.5151421 -0.9085512 4.9373336
-0.7986707 -0.5092158 1.2929797
-5.5792971 0.8155537 7.0172296
-5.9102211 -0.4187818 4.7164464
-0.2108500 -0.4432862 3.2508101
-5.4379888 0.2939597 4.5050168
-2.3914578 -2.2282169 2.5099587
-1.6455861 0.7416390 4.5808635
-4.9355536 0.7233515 2.6054502
-6.6304398 -2.2924213 2.0256894
-1.9224435 1.6197807 3.8683884
-7.1959515 -1.1609613 2.6641366
-7.2341371 -1.3521109 2.6848557
-2.4550612 0.7835658 2.5387292
-3.3983202 -1.7624391 1.6087314
-0.7850449 2.2101426 2.9712882
-0.5685343 -1.2663040 3.2702672
-0.1318211 -0.8357062 2.5018628
-1.1047251 -0.4116737 3.9928415
-3.2169445 -1.9145809 1.7161752
-0.6005749 -0.5037748 3.1710813
-4.4642491 0.9971545 4.6483617
-3.8622050 -1.3345938 2.9111242
-4.1033487 0.5407634 2.2240100
-3.1513062 -1.9917933 1.7043852
-3.1532180 -1.9931244 1.7036895
-3.9563327 -2.2076364 3.0457201
-3.9893057 -2.1924601 2.9527314
-0.4618823 0.2147639 4.0317688
-0.2848772 -0.4404496 3.2649832
-6.0701838 0.2711884 5.8812723
-4.0138717 0.2537017 1.9172765
-3.0561540 -1.7791569 1.5630122
-3.1668835 -1.9882026 1.7901025
-4.6694479 -0.2140327 4.8983059
-0.1649155 -0.9650545 2.6710222
-0.1527604 0.9151861 2.5256517
-6.6129837 -0.1136779 7.2260799
-0.8159511 -0.8514396 4.1006789
-5.4252887 -1.6319888 1.2150631
-4.8982272 0.2654040 1.5719008
-6.7081213 -0.4598233 1.7980843
-7.2344890 -0.4262273 2.5887480
-8.9358549 -2.8155522 4.7835846
-6.2057929 -1.7182219 1.1987693
-7.9113669 -0.2563948 3.5425959
-3.5728691 0.7592562 4.2453403
-3.1333985 0.3084735 1.6447612
-2.7707839 0.2839906 0.9186519
-4.2406535 1.2517180 1.6277102
-4.3911767 0.5148457 2.1481063
-1.2265713 -0.6839412 4.6253552
-4.3838973 0.5437870 2.1801755
-5.9440136 0.8159904 4.4933391
-5.9003549 1.3998140 5.4065456
-1.1708630 0.0632413 3.8464723
-4.7151442 0.6752278 4.8226786
-5.8467031 2.3206892 6.9694295
-5.9269567 0.8121411 4.2766576
-1.4683416 -0.0778565 4.7160034
-0.2863298 -1.0260758 3.0794091
-0.9104172 -0.9299078 3.8150899
-1.4433005 0.0471034 3.9324780
-1.1890718 -0.2230201 4.2428117
0.3095223 0.0090460 2.0363569
-4.2919664 -2.2083087 -0.2982156
-3.4270108 0.8684870 1.0694503
-1.2020119 -0.7146976 4.5613985
-3.4628477 0.6918701 2.3120787
-6.7228141 0.1715100 1.5863658
-0.5111976 1.0798365 5.0458069
-3.6120579 -1.7669786 1.4637541
-0.1871860 -0.9998218 2.6024320
-0.0602721 0.5680913 3.2347381
-4.5680499 -2.1107657 -0.9875743
-0.3371462 0.4060459 1.6245980
-1.2631928 0.6815386 2.3686690
-4.4598169 0.7376663 1.1017284
-3.7922540 1.4941173 1.3738037
-1.1315242 0.8333942 2.5925121
-7.1981707 0.3433359 2.2791910
-0.5638648 -0.9952444 3.0893919
-0.5327196 0.2512237 2.6931884
-3.8859842 1.0321935 0.9695249
-3.7470832 1.0014746 4.4033608
-6.3672342 -0.9237205 1.2156589
0.2402664 -0.1789645 2.6490226
0.1171746 -0.2975594 1.4354178
-5.7209172 1.4945836 7.2873836
-3.2261634 -0.0993550 5.0608735
0.6563967 -0.5158184 1.7649864
-6.1639838 -1.8228204 1.0289006
-4.1420813 0.6345655 5.3678823
-8.7687635 -0.9493126 4.0214300
-5.0795302 0.6384618 3.8161979
-3.3192780 1.6056371 5.4415865
-0.3280331 -1.1513155 3.0218835
-3.9006729 0.6396732 6.2567005
-6.0140834 0.8561422 4.3530331
-7.7914085 -2.6120203 3.6820805
-3.3156228 0.9737375 4.8397384
0.0122155 0.0787069 2.3860216
-0.0341769 0.6514726 2.7027550
-5.3244276 -3.0819268 0.7764170
0.4976774 0.8305546 1.9331075
-5.5819049 -3.0393419 -0.0374348
-4.8282480 0.7133235 1.7214094
-4.1059084 1.3681514 1.5380481
-6.9470849 -0.4464435 2.2440495
-1.1909925 1.2353712 4.1271005
-6.6926646 -0.3725583 1.8323934
-5.8494139 0.0422553 2.5733442
-2.3599548 -0.8354397 2.9881623
-3.4331973 -2.9080174 1.0177332
-4.9356127 -1.4804127 0.5453401
-0.0717571 -0.9534410 3.3484917
-5.6993208 -3.3343337 2.7081954
-5.7490487 -3.3630984 2.9046156
-5.0613241 -0.0112434 4.9247313
-3.4547498 1.3779707 1.0860511
-6.4201622 -0.9596598 1.2044203
-3.4488780 1.3982469 1.0998640
-4.9124260 1.9716115 9.9361982
-5.7200861 -0.4221510 3.7476976
-5.6758041 2.4696727 9.4009171
-8.9322834 0.6044180 5.1513748
-0.2185813 -0.3311284 3.1546986
-4.6044416 1.9538320 3.9912345
-4.7916460 -1.7032471 0.2240878
-2.8013144 0.6465490 0.7846100
-6.5634618 -0.0175635 1.3388944
-3.3407891 1.1146177 4.3100228
-0.4757595 -0.7547381 2.7009048
-10.0529337 1.2842808 5.6957431
-7.3163996 -2.1736827 1.8840632
-7.2509770 -2.1895983 1.7771953
-5.2180748 1.6642479 6.5875196
0.7611780 -1.7850804 1.5105238
0.0302735 -0.3334780 2.4311814
-4.4303627 0.5042766 4.6775894
-3.1149635 0.6498284 1.9421620
-0.7302979 1.3380775 3.2656367
-1.6958190 -1.3919344 5.2022085
-1.9725422 2.1393147 1.7264421
-2.4724071 0.7969446 2.5993025
-1.4548597 0.9807045 2.6209717
-3.6118770 1.2336353 5.6047401
-3.2644041 0.6686049 5.1992145
-1.6748000 1.4788826 4.2143707
-3.8371961 -0.4954431 4.8423753
-0.5757840 -1.2172976 2.9252830
-4.0797281 -0.6056272 4.5884895
-2.4063573 0.7746946 2.5902226
-5.4229240 -0.5855345 4.8532572
-3.1780543 0.9403076 2.8592448
-2.7060640 -1.8815181 5.0046926
-1.1299757 2.5953002 6.3634272
-2.8303244 -1.6912824 1.7115928
-2.8223009 -1.6938366 1.6299812
-2.0685959 0.8941569 2.2246976
-4.5074091 0.5485023 5.0157738
-4.1295156 0.5846232 2.2712057
-2.8126330 -1.7184297 1.6737841
0.0308852 -0.3374268 2.4244132
-1.0259004 0.7608219 4.3881664
-4.3685951 1.5154101 6.3071151
-0.5521563 -0.3857211 3.1057138
0.1985167 0.5235994 1.9097108
-1.3898078 -0.6985826 4.5349998
-1.3194385 1.2262998 3.8247113
-0.0716922 -0.8807205 2.5140092
-3.2293382 0.2541039 5.1236577
-3.1432614 -2.4802601 1.8060811
-0.0350319 0.0600993 2.3361850
-2.4994602 2.0106015 4.5574846
-3.1757264 0.6315899 2.1741128
-5.4006233 -0.7961784 4.2292643
-3.6557410 0.5966865 2.0291812
-5.6803474 0.3993339 5.1927037
-3.2117593 0.2565416 5.1307831
-3.2165926 -1.9157959 1.7616599
-0.5925310 -0.5383003 3.0443254
-4.0171437 0.6601325 2.3916221
-4.3567319 0.5125750 2.1646276
-8.3124065 3.3588853 11.2555571
-3.1544881 -1.9929596 1.6695477
-5.3084264 0.1355597 4.1358838
-3.8766849 -1.3558257 2.9142373
-4.6092243 -0.0396228 3.6251080
-0.3076344 -1.1214217 2.5591700
-3.1302338 -3.5937927 1.8721610
-3.3786979 0.0263620 0.9873979
-0.2665757 -0.9967837 3.1700013
-4.5498576 0.4839809 1.8962553
-4.6458035 -0.5138307 5.0343804
-2.4357700 0.3941197 1.4236746
-2.7752357 0.8667162 0.9459607
-1.6355785 0.8321999 2.6199996
-3.2914870 -1.8528754 2.2938621
-5.2570434 1.0485458 1.8048077
0.0111552 2.6479211 6.4732652
-2.8023300 0.4490393 1.0192891
-5.0596313 0.1257916 4.0906463
-4.0063038 0.4200164 1.8558017
-2.6837380 1.5342133 3.5997725
-1.8108387 -0.8702453 5.0641470
-3.0949113 0.2598011 0.8748500
0.2559630 0.2558868 1.9035041
-3.8497612 0.9641634 2.8956828
-3.9405892 0.5318996 2.2366552
-2.0626922 0.7169313 2.1327484
-18.0521584 5.1726680 29.8935146
-5.3798852 -3.1067333 0.9934150
-5.5485315 0.0973436 4.1536608
-1.1498102 0.0861795 3.9109480
0.4517640 0.0644287 1.7672576
0.0785294 -0.0277379 2.1328049
-1.2930490 -0.7762402 4.2712560
-3.4131234 0.9448138 3.9415004
1.0348407 -2.4731631 1.3509786
-2.1155636 0.8740678 2.5974791
-1.4535818 1.0261412 2.9151413
-1.8340484 1.3964325 4.6101971
0.2414006 0.7782001 1.9666232
-2.6102040 0.8781536 2.1502829
-0.1350319 -0.6921940 2.5381844
-1.2871315 2.5972240 4.4265685
-2.2676904 0.4323068 2.2178175
-2.4657743 0.8333744 2.5738757
-0.5694746 -1.3092526 2.9708731
0.1520035 -0.0043455 2.2031076
-2.3563981 0.6565612 2.3526030
-1.8359501 2.8376040 4.2137871
0.6318265 -1.8821905 0.8949221
-0.2013298 0.6556423 2.5709772
-19.4064560 12.9641285 32.9172401
1.0976368 -2.4104929 1.4555969
-1.7877104 2.5137541 3.8888612
-3.2142940 0.4007547 5.1004252
-17.9891872 10.8015671 27.1377068
-20.0042019 10.5085983 32.1665421
0.8574386 -2.2575350 1.5544205
-3.1387939 0.3694828 3.5093749
-2.0415716 0.0601437 1.8200504
-3.5385258 0.0387983 3.5346372
-1.0734885 2.8586538 3.7348330
-9.9811659 21.9748440 48.9730530
-4.9350319 0.8097715 1.5167838
-6.0559735 -3.2184348 0.9837533
-6.0438805 -3.2082613 0.9759458
-3.3204322 0.8063756 1.4223034
-3.1374190 0.4847572 0.8505659
-4.3712564 0.5439522 2.1423271
-9.3726988 3.1550429 14.1352873
-3.3310597 0.1825136 4.4514380
-3.9893324 0.8660834 5.7960672
0.6893361 -2.2159512 1.3089969
1.1071652 -2.3748887 1.5560607
0.9542425 -2.0630622 1.4503803
0.5921752 -0.5382103 1.7433009
-0.0945828 0.1210342 2.4443097
-2.0852633 2.4229217 3.6203802
1.0201119 -2.2920537 1.8084910
-3.3107538 0.1806884 4.4339390
-3.4276710 0.2502266 4.3793378
-8.9072752 2.9655669 13.4181280
-0.1470293 -1.0026940 2.5935018
0.4495319 -0.4246927 3.2240343
-0.1144810 -0.4199176 2.9313958
-3.7098548 0.6519580 4.1573696
-3.2423220 1.2040907 5.0589271
-3.6462057 1.2967632 5.7062402
1.0014731 -1.9294953 1.2584416
-0.1080654 -1.0277573 2.6472321
-2.2386568 1.5046569 2.8016114
0.4644417 -0.5103256 1.9324305
-20.5562038 12.6305075 32.5786934
-4.0814557 0.6475703 4.6279202
-3.6093795 0.4262606 5.6296048
1.0303478 -2.0083721 1.5475103
-3.5037603 0.3059762 4.0550885
-5.3645325 1.1216742 2.0135329
-3.5098157 -3.5280459 2.2658994
-0.5760588 -1.3050319 3.2356074
-0.5432149 -1.1383338 3.2888794
-0.0620246 0.2036502 3.9887633
-8.0783491 5.7729974 18.5145645
-5.1699176 0.1765919 4.2010541
-3.0380852 -3.7586503 1.7940764
-4.6888752 0.0979406 4.8511968
-3.1342230 -3.6115084 1.7953397
0.5949619 3.3021350 7.4177203
-7.8503370 7.0224977 21.2625294
-2.9966588 -1.6135815 2.0311942
-3.1828835 0.7049728 1.9850558
0.5892157 -2.1663525 1.2654781
-3.5977318 -2.3215711 2.4534552
0.2987721 -0.0128316 2.0887499
-2.9265614 0.7302092 2.0994442
-4.1752949 -1.8248665 2.9821806
-1.1770494 0.8598536 4.6284142
-0.7376693 1.2464269 3.1495013
-2.5946438 0.9437762 1.0478556
-0.9393333 -1.0689391 3.2366686
-3.2566237 0.4518089 5.1703715
-2.5939901 0.9224021 1.0296439
0.5963299 -2.1678681 1.2782291
0.2920074 -0.4128024 2.0865951
-0.7681913 -0.2009933 3.1675282
-3.2810688 -1.5083799 2.7468104
0.6588374 -1.3993535 1.2702768
-3.4024050 1.2119614 1.7653415
-3.2809398 0.9114969 2.7302408
-2.9505723 0.7177921 2.0509231
-2.8981812 0.6430265 1.9497387
-0.9997401 -0.8129449 3.7160611
-1.8282280 1.4872208 4.7424340
-2.5152290 0.5726470 1.6601536
-2.7669947 0.3988088 1.0114794
-2.2717538 0.5345300 1.5707681
-4.3902102 0.5122718 2.1479495
-2.2050712 1.6856644 3.5265138
-0.1728506 -0.9739620 2.6438115
-0.7657065 1.4380863 3.0477226
-3.6700168 0.4511841 1.6955817
-5.3944769 -3.1333594 1.0738649
0.0001493 -1.4729633 2.5226951
-0.2968343 -0.6205495 2.8286688
0.5594833 -0.1450952 1.6194664
-0.0978377 -0.6545721 2.5931458
-1.4517647 1.0387446 2.9315050
0.3318778 -0.3728638 2.1849105
-3.1306880 0.6633958 1.9261951
-3.8213832 0.4160090 1.7361624
0.2760943 -0.0497667 1.9663551
-1.6718391 1.0346174 5.4120111
-3.9184809 0.3461549 5.5504088
-1.9890457 2.2023413 1.8241155
-4.4321795 0.1530601 4.8145261
-2.9130476 0.3177938 0.8027014
-1.9938538 2.1693549 1.8069550
-6.5000920 0.6883831 9.9138422
-0.7673923 1.6156166 3.3774896
-2.4690373 1.9131700 2.2691658
-2.5368800 2.1763613 2.5242474
-0.8961003 -0.9187993 3.9109049
-0.0044302 -0.5472759 2.5578418
-3.9555688 0.6312762 1.9507669
-0.0488265 0.0724987 2.3564689
-3.9270349 -3.3106937 3.2115583
-1.4907964 2.1548955 2.9710031
0.3547812 0.0834533 2.2278066
-2.6965249 1.9486775 4.5689230
-2.5524933 0.6292930 1.7474111
-2.9340742 1.6589702 1.4114499
-0.0617426 -0.5939236 2.4267275
-2.5478780 0.7637066 1.1471958
-4.1153288 -2.2220902 3.4940231
-2.5179355 0.5415933 1.6311378
-1.9555444 1.1562641 2.1391554
-1.6575570 0.6981684 4.6378083
-1.1704892 0.6135719 4.0714569
-3.4816072 -1.6754427 1.8823878
-1.9278235 1.0487367 2.0097322
-2.5172844 0.6798307 1.0896002
-1.7099394 1.7518789 2.6418331
-3.7065468 0.7465581 2.1642265
-4.5659370 0.7716425 4.9537420
-2.0368886 1.4948021 2.0317445
0.1770951 -0.5536133 2.1879611
-2.9807079 -1.6046983 2.1897800
-3.7964730 -1.6563405 2.3168118
-3.2967176 -1.6862113 2.5445364
-0.5910943 -0.5575604 3.0056713
-4.0856967 -1.8415629 2.9742923
-2.4905856 0.9528901 2.0995512
-0.1591678 -1.1773713 2.6086853
-2.6340170 1.0563139 1.1404669
-2.4915006 0.6096678 0.9850115
-2.4912670 1.0744069 3.2170317
-2.5309982 -0.1517576 0.2937127
-4.1337538 -2.2184272 3.5490644
-3.1854267 0.6485677 0.9518672
-3.8248143 0.7213002 4.5471096
-2.6166723 1.0011255 1.1044725
-2.5285692 0.7337805 1.1108409
-1.7927542 2.5350850 2.8330061
-0.0360331 -0.5526615 2.5199187
-0.0029528 -0.5201579 2.6101489
-0.2960836 -0.7400349 2.7508388
-3.5076461 -1.7586857 3.0208714
0.4972456 -1.3355949 1.2411035
-2.6230216 1.0511770 1.1443177
-3.6972106 0.3416350 1.5559831
-3.6509731 -3.5557108 2.4273450
-4.1413879 0.2411306 1.2781969
0.1311562 0.3316313 2.0552435
-0.3039168 -0.5886966 2.8691907
-1.5811225 1.0451622 5.1168346
-4.4198799 0.1449116 4.7549243
-4.0468049 0.7114002 1.3544335
-3.1276422 -3.6398900 1.8368471
-2.4319432 0.8230478 1.9276956
-3.4199469 -1.7786529 2.7918901
-2.2488663 0.8810569 1.5555965
0.6461617 -1.0595888 1.2226814
0.1341445 0.3492418 2.9310634
0.4823315 -0.5311832 1.9326477
-1.2535774 -0.7582628 4.4659567
-0.4718083 -0.3972040 3.5110474
0.8120590 -2.1779535 1.6281116
-1.2193136 1.5689867 4.3050637
-3.4180915 -1.4687783 2.4324067
