-0.6413940 0.2078669 0.6857432
0.1636164 0.0536009 1.0371976
-0.2694337 0.1721848 0.6978732
-0.2738853 -0.0713052 0.8861737
-0.2810144 0.4609209 0.6322550
0.4918970 0.1189366 1.1278540
0.5159109 -0.1913580 0.7703142
0.4819844 -0.1792485 0.7674331
0.1775114 0.1142286 1.1388792
0.4635517 0.0436959 1.3602742
-0.4484099 0.0439797 1.7078130
0.5107688 -0.1550800 0.8452662
0.4656294 -0.0155777 0.9832029
-0.5002614 0.2220635 0.6023498
-0.4651727 -0.0062815 0.5953375
-0.4903358 -0.0025184 0.6753119
0.4795586 -0.1810412 0.7695247
-0.4538403 -0.0045773 0.6213851
-0.3266330 0.2614589 0.7228469
-0.2928818 0.4734857 0.6467974
-0.4531405 0.0569292 0.9253445
-0.4958794 -0.0057526 0.6256344
0.5131620 -0.1461830 0.8442464
0.4826150 -0.2917653 1.0042444
-0.4840276 0.2400237 0.6541525
-0.4640742 -0.0102264 0.6123396
-0.4066176 0.2222715 0.6055876
-0.2939014 0.4738809 0.6567808
-0.2839238 0.4758184 0.6495057
0.1547949 0.1011436 1.0254589
0.5135831 -0.1528165 0.8470165
-0.5525465 0.1722620 1.0746347
-0.8178279 0.1244665 3.0943737
-0.1421460 0.7667270 1.9402459
-0.0539151 0.9468427 2.0064106
-0.4655001 0.0443087 0.6100151
-1.1730736 -0.5953764 1.9643611
-0.2003473 0.6217311 1.3793693
0.4312806 -0.0662468 0.7015614
-0.5006630 0.2234106 0.6039773
0.6713345 -0.5676001 1.7157080
-0.3896041 0.2601321 0.6691144
0.4008888 -0.0606379 0.7267289
-0.4302052 0.2322182 0.6202718
0.4856021 -0.5727054 0.9671997
-0.6029800 0.4361840 0.6866661
0.2424459 0.3297593 1.5537194
-0.4464657 -0.5732288 1.8273821
0.5244824 -0.6588506 1.4855890
-0.4638771 0.0254860 0.7459384
-0.4705123 -0.5866690 1.8836708
1.1028118 -0.0255170 2.9071493
1.0552330 -0.0305943 2.8441973
0.1620110 0.0557883 1.0620399
-0.4420681 0.5395124 0.9029278
0.5434916 0.1583970 1.2526306
0.4730404 0.1048850 1.6509713
0.4792105 -0.3881230 1.0229262
-0.2470022 0.6208572 1.0621797
-0.4812448 0.0602527 0.9622418
-0.6869653 0.4232300 0.7556491
-0.4282376 0.2326661 0.6208665
-0.2864466 -0.0821283 0.9059016
-0.6572145 0.4640320 0.8237804
-0.2975478 -0.0994010 0.6760302
-0.7870827 -0.0102877 1.3038163
-0.4689348 0.5249124 0.8987404
-0.3018202 0.5994777 1.0441297
-0.5717986 0.4850031 0.8151157
-0.4539062 0.2291807 0.6242870
0.4805698 0.0655198 1.5287267
-0.6947337 0.5489747 0.9251242
-0.4628489 0.1755612 0.7696927
-0.3658111 0.2297722 0.6202191
-0.6470283 0.4547316 0.8088654
-0.5195866 0.1978063 0.8649405
-0.2825195 0.5673775 0.9348273
-0.5435956 0.3880646 0.6032184
-0.0878761 0.4294257 0.5135850
-0.5509792 0.4162754 0.6883239
0.0508676 0.6638573 1.5140375
-1.2622541 -1.4629589 4.8448310
-0.6088809 -0.0835341 0.9789420
-0.2875657 0.5230631 0.8925228
-0.0410239 0.5894384 1.4890130
-0.5889777 0.4233552 0.6600811
0.1540474 0.6305181 1.3281757
0.1130372 0.6686987 1.4023887
0.3254904 -0.0955333 0.3953057
0.0794214 0.0802763 2.0431495
-0.4839116 0.7155371 1.5654353
-0.4473136 -0.0131599 0.5587906
0.4229281 -0.3373603 0.6685987
0.5089708 -0.1240304 0.9119508
-0.4693927 0.0731795 0.9812991
-0.4167040 0.7919664 1.6393899
-0.5579025 -0.5719191 1.8472530
-0.4792382 0.2414942 0.6295640
0.5998963 -0.3193448 1.7807393
0.2499891 0.3192936 1.5850573
-0.3710320 0.5967648 1.1046103
0.1006945 0.2966184 1.3572090
-0.4264015 0.0699300 1.7786773
-0.2808465 0.0508466 1.7309227
-0.4653154 0.5220299 0.8945037
-0.3373136 0.5713938 0.9977625
0.5473185 -0.4196766 1.3262038
0.5406777 -0.4285325 1.2969457
-0.5583957 -0.5804582 1.8706161
-0.1519851 0.6511183 1.1102278
0.4218034 -0.3403265 0.6683481
-0.1733718 0.1896121 1.2032272
-0.0072066 0.7158933 1.2232243
-0.4094676 0.5672649 0.9511674
-0.6342999 0.5429294 1.0635364
-0.3725106 0.2434518 1.6667880
-0.5617303 0.4615059 0.7767220
0.1544943 0.7940716 1.3572569
-0.2978107 0.4800511 0.6561541
0.2622519 0.1626699 1.2235215
-0.3052958 0.6063941 1.0528796
-0.3683897 0.2347588 0.6274653
-0.1790706 0.6401860 1.1078721
-0.5989426 0.4747891 0.8089259
0.5142348 -0.1493564 0.8490975
-0.2846783 0.5656663 0.9382167
-0.2788953 0.6892703 1.3448452
0.7550359 -0.2656990 1.0162464
0.1678810 0.0572829 1.0553366
0.4249933 -0.0672122 0.6863465
-0.3231523 0.2987117 0.8580625
-0.6671293 0.3893231 0.6862257
0.1667851 0.1015517 1.0679424
0.4807348 0.0543716 1.1715916
0.5008036 -0.0054121 1.0570005
-1.0295918 -0.7903379 1.2022074
-0.4935797 0.0245810 1.5947323
-0.0837146 0.4587908 1.6329225
-0.2319490 0.2775513 1.6203260
-0.9200203 -0.4171547 0.8161617
-0.6342796 0.4461390 0.6756236
0.4319732 -0.6985294 0.7362003
0.4880775 -0.7394664 1.0364796
-0.6379620 -0.3074286 1.0638224
0.2060751 0.1140785 1.2641226
0.4580294 -0.6201441 0.7997620
-0.4707011 0.0691497 0.9706284
-0.6990129 -0.3178390 1.1679947
-0.5738565 0.4795092 0.8094113
0.1147340 0.0063237 0.7698693
-0.6340113 -0.3090042 1.0609765
0.5084181 -0.7907413 1.0145323
-0.6531634 -0.0362261 0.5845165
0.2593233 0.1699742 1.1913400
-0.2566604 0.1725296 0.7408143
-0.6950663 0.4499791 0.7499636
0.5167709 -0.7528055 0.9313526
-0.6314930 0.4625934 0.8096486
-0.0684726 0.2447785 1.9511285
0.5587302 0.1676994 1.9558644
-0.2857778 0.5672762 0.9290332
0.5102015 0.8698032 1.6002742
0.6733943 -0.6239601 1.6825582
-1.2142587 -0.5477507 1.8684667
-0.0954819 0.9243817 1.9699284
-0.0511134 0.7908704 1.7343690
0.6236676 -0.7127724 1.7869983
0.4756237 -0.1814088 0.7654487
-0.2654103 0.5841253 1.0140778
-0.5494990 -0.5804875 1.8660812
0.2811309 0.9131591 1.9345089
-1.4128122 -0.6209012 2.1343403
0.2262877 0.3079537 1.4784467
-1.0921447 -0.5090641 1.6776468
-0.4956750 0.0645845 0.9951376
-0.3121465 0.1279282 0.6256689
-0.5386889 0.1450836 0.8938469
-0.3776523 0.4366228 0.7633685
-0.4713008 -0.0029156 0.6528337
-0.5693403 0.4690928 0.7863760
-0.2984747 0.1932363 0.7819206
-0.6387413 0.4489931 0.7884650
0.5000373 -0.3096447 1.0309267
-0.2790174 0.5760803 0.9413877
-0.2991826 0.1628430 0.6731219
-0.2565866 -0.0703760 0.8316671
-0.3264658 0.3046523 0.8646494
-0.5863745 0.4292766 0.6859688
-0.6542037 0.5853744 1.1313857
-0.4926989 -0.0052983 0.6368554
-0.5582207 0.8087956 1.7815704
-0.2906466 -0.0990569 0.6614827
-0.6573110 0.5695369 1.0981354
0.5089225 -0.1904538 0.7812188
0.3989719 -0.3125424 0.6629671
-0.1091156 0.6712213 1.7338495
-0.4581946 0.6569652 1.3069953
-0.4501658 0.5346447 0.9166980
0.4398555 0.8373223 1.4733180
0.0983764 0.8258246 1.5561171
-0.5613977 0.3983610 0.6147709
-0.9841009 0.7003505 1.5841066
-0.4046811 0.5589877 0.9396576
-0.3173243 0.5131531 0.7559624
0.4022786 -0.0715083 0.6562343
-0.5333374 -0.0220609 0.7935686
0.3642489 -0.1996655 0.4629163
-0.2972260 -0.0961216 0.6689880
0.3353925 -0.0868392 0.4535333
0.3214512 -0.1835288 0.4210951
-0.1637526 0.3743354 0.4614313
0.3835432 -0.2165803 0.5047099
0.3691335 -0.2091138 0.4819144
0.3479404 -0.1952101 0.4624165
-0.3352443 0.1957631 0.6311746
-0.3134573 0.1278474 0.6281034
-0.3320144 0.1957480 0.6285264
-0.4513601 -0.0307824 0.4949194
-0.2864301 0.4854296 0.6590247
-0.3303642 0.5848910 1.0169528
0.5528374 0.1818085 1.2624273
-0.6040612 0.4631433 0.7736704
0.4023029 -0.1605528 0.4908002
-0.5033825 -0.0347931 0.5421359
0.4388201 0.1171253 0.9962546
0.1122192 0.7313910 1.5441984
-0.3894547 0.2298045 0.6151491
0.1147860 0.3035125 1.3649013
-0.2896145 0.6874194 1.3235042
0.6100530 -0.3452392 1.7413509
0.1393488 0.8645581 1.6334071
0.5097494 0.0300113 1.4537638
-0.3666186 0.2318839 0.6234499
0.0733136 0.0706698 2.0491517
-0.1516829 0.6569173 1.1212139
-0.2656670 0.1895253 0.7841800
-0.5331251 0.0696864 2.0172722
-0.8856301 0.4982169 0.9896931
0.4349269 -0.0498417 0.7756388
0.0966719 0.8236992 1.5613713
0.0715969 0.0729304 2.0295918
-0.5631201 -0.5771843 1.8606591
-0.6798556 0.5845719 1.1398323
0.5070878 -0.1436719 0.8629608
-0.6427416 0.5552850 1.0761639
0.1535413 0.8422005 1.6492354
-0.2379112 0.7050536 1.3617958
0.1901691 0.7924376 1.3953555
0.4873275 -0.1270716 0.8759504
0.4919862 0.0656562 1.1285481
-0.2974476 -0.1002878 0.6742094
-0.3884759 0.2276475 0.6166162
-0.1483006 0.6646927 1.1324285
0.5532842 -0.1865874 0.7781193
-0.4469100 0.2925545 2.0018163
0.5861977 -0.2455173 1.4665745
-0.3869638 0.2278197 0.6164165
0.4715445 -0.4102434 1.0063047
0.4663532 -0.2915912 0.9656679
0.0278795 0.7256842 1.2414442
-0.6118254 0.4305120 0.6509764
0.5962533 -0.4547030 1.6751157
-0.4542945 0.5343496 0.9181952
-0.4663889 0.6618588 1.2748185
0.4632020 0.1064270 1.0710881
0.5919713 -0.2483978 1.4631064
-0.0418174 0.6999303 1.2098502
-0.0038648 0.7149035 1.2245495
-0.2876098 0.0267898 1.5209568
-0.3175559 0.5529899 0.9527919
-0.6552706 0.5678168 1.0981110
-0.4668679 0.0579284 0.9365138
-0.2259061 0.6399839 1.2657338
0.5192387 0.0230488 1.4581965
-0.7064962 0.4371627 0.7654672
-0.5982701 0.4487047 0.7777269
-0.4532853 0.0573662 0.8793077
0.4884008 -0.2513920 1.0206786
0.0928619 0.2908558 1.3374966
0.4962879 -0.4423309 1.0482801
-0.2886989 0.3589265 0.8126736
-0.8345247 0.4728519 0.9276050
-0.2507905 -0.0668328 0.8229919
-0.4926811 -0.0029607 0.7525275
0.2424860 0.3359123 1.5561830
-0.5556473 0.4400549 0.7531036
0.2320956 0.7780934 1.3643254
-0.1220036 0.6628891 1.1280247
-0.0620821 0.5478883 1.4553806
0.2278613 0.7613472 1.3406763
-0.6954260 0.4447250 0.7650638
0.1638975 0.1085250 1.0813575
0.5365623 0.1514243 1.2351314
0.5018984 -0.4161415 1.2070259
-0.6830137 0.4139670 0.7405326
-0.8592344 0.4881987 0.9533459
0.4699208 -0.3697069 0.7875410
-0.6098098 0.4559571 0.7410913
0.5391474 -0.4166710 1.3007133
-0.5753652 0.4732364 0.7959771
-0.2665513 -0.0043181 1.3251798
0.1708929 0.7382911 1.3074840
0.5085000 -0.1462093 0.8526102
-0.2992500 0.5954329 1.0319207
-0.3694225 0.7714532 1.5886667
-0.8005800 0.2720464 0.8379402
-0.2699486 0.7037825 1.3432689
-0.5877078 -0.0587072 0.6388710
0.9157217 -0.8279793 2.3636587
-0.2925567 0.5776742 0.9428962
-0.3843975 0.2260776 0.6126201
-0.5716609 0.4886955 0.8195621
0.4120770 0.0549603 1.1679807
0.4768913 0.0590032 1.1487741
0.4319527 -0.0490929 0.7675022
-0.4694383 -0.0387559 0.5183462
-0.5250167 0.2201021 0.6082846
-0.4756581 -0.0342358 0.5109541
-0.4257635 0.2292065 0.6170051
-0.5424223 -0.0037390 0.7403989
-0.4643638 -0.0077401 0.5966175
-0.3004487 0.1635026 0.6747087
-0.1728371 0.3928683 0.4838319
-0.4535824 -0.0277544 0.4930661
0.4091951 -0.0709715 0.6639393
-0.5265258 -0.0513834 0.5720216
0.4107482 -0.0688272 0.6639480
-0.2900161 0.1913957 0.7709115
-0.2044567 0.4583614 0.5516958
-0.3306699 0.2377975 0.6352718
-0.2947999 -0.0977138 0.6681651
-0.0929957 0.4303201 0.5167277
-0.3991046 0.4069032 0.5080574
-0.2634248 0.6508647 1.3288745
0.1000137 0.6588742 1.4220859
0.2152904 0.7042330 1.2625655
-0.2916034 0.4852208 0.7238253
-0.3017503 0.4978889 0.7234445
0.1015444 0.8576714 1.6265335
0.5445315 -0.7648870 1.2443219
0.6718747 -0.6698349 1.9281237
0.1188690 0.8771209 1.7574948
0.2807395 0.9772221 1.9734367
0.5321696 -0.7185246 1.3298339
0.2811449 0.9990292 1.9834646
0.4939321 -0.1953053 1.4672366
-0.3829613 0.7040832 1.5285892
-0.7108455 0.4420971 0.7697060
-0.4827181 0.6616971 1.2455713
0.2436777 -1.3212671 1.9928668
0.2520714 -1.3919541 2.1189325
0.5283552 0.1421869 1.8433219
-0.5887526 0.1853993 0.5903953
0.4901059 -0.3932979 1.0314767
0.5400363 -0.4065496 1.3065975
-1.3068112 -0.6051713 2.0579176
0.4930070 -0.5337582 0.9887061
-0.5974576 0.2339444 0.9217828
0.5176743 -0.5716139 1.0421025
-0.3124433 0.4999774 0.7511448
-0.7625623 0.2398795 0.7487376
0.5279996 -0.7509165 1.2147586
-0.4139531 0.6227577 1.1797674
0.1332967 0.7980615 1.5194923
-0.6300037 0.4407189 0.6749459
0.8381252 1.2124660 2.4407403
0.2115627 0.8984692 1.8517096
0.6091087 -0.0419376 1.6656759
-0.4802998 0.0521362 0.7669562
0.5497010 -0.7208239 1.3862634
0.4976521 -0.5776229 0.9886367
0.2223506 0.9223047 1.8739402
0.2517036 0.6138061 1.4189237
0.2084046 0.6952375 1.2432832
-0.4700632 0.2835268 2.0818789
-0.2594157 0.6542646 1.2749829
0.8964170 -0.0904418 2.7628820
-0.1142197 0.5994358 1.0464780
0.4705166 0.7824166 1.4718136
-0.1696533 0.2092625 1.2576313
0.3284070 0.8744377 1.8820521
-0.0456777 0.6759042 1.1728975
-0.4660322 0.1349628 0.9141334
0.0991439 -0.5936596 1.9177278
-0.3229492 0.2948078 0.8375219
0.6503419 -0.6646069 1.8745619
-0.0568930 0.4331060 1.5259748
0.4787609 0.0571719 1.1545330
-0.3164120 0.4896134 0.6870411
0.4783034 0.0483403 1.1835954
-0.3834192 0.2536637 0.6556744
0.7956589 -0.2962545 2.3137951
0.0768318 0.0795665 2.0774534
-0.7199262 0.4310326 0.7216884
0.4383355 -0.0681150 0.7166747
0.6885526 -0.6357180 1.7606066
0.4731422 0.0011499 1.0169635
-0.4717167 -0.5872905 1.8923616
0.4949748 -0.1914815 1.4600085
-0.3904415 0.6787174 1.5885559
-0.4811772 -0.5573148 1.8027569
0.5203109 0.0210071 1.4629363
0.5152682 0.0206122 1.4556257
-0.4757751 0.5858307 1.0889940
-0.4467020 0.0645003 1.8788214
-0.3292048 0.7285387 1.4335911
0.1919650 0.8088796 1.4209993
0.4936207 -0.3947300 1.0470837
0.1580594 0.1078526 1.0509437
0.4198502 -0.0689828 0.6767148
-0.0160185 0.3683046 1.9750658
-0.4387013 0.1649187 1.2035425
0.1371001 0.1262045 2.0024619
-0.4658573 0.1131377 0.8978989
-6.3114285 -2.9360609 9.8524704
0.4829576 0.0039244 1.0341803
0.4835582 0.2030786 1.1037099
0.2893790 0.2373700 1.5677476
0.8067031 -0.2943774 2.2527750
-0.6137265 0.1439337 2.1685450
0.4881514 -0.2509792 1.0198654
0.6756892 -0.9000089 1.7615045
0.6872090 -0.5081248 1.8970983
0.5162168 -0.4611532 1.1001489
-0.3214439 0.2964912 0.8551522
0.1658564 0.3050179 1.4370377
0.1675199 0.0519170 1.0410348
0.3532454 -0.2863171 0.5677188
0.3495196 -0.0910093 0.4664214
0.4952358 -0.1304331 0.8852151
0.3644536 -0.1963552 0.4670136
0.3927769 -0.0921523 0.5529576
-0.3289644 0.2363302 0.6322098
-0.2824826 0.1848601 0.7530588
0.3803711 -0.2154057 0.4970056
0.3989721 -0.2225858 0.5298106
-0.4831400 -0.0295537 0.5255036
0.3785262 -0.0959824 0.5091860
0.3950890 -0.2143615 0.5068024
0.2472471 0.7958223 1.4122814
-0.0062291 0.7163393 1.2227546
0.4660763 1.2381488 2.6093273
0.2128431 0.1772200 1.1652470
-0.4915184 0.0222481 0.7159737
-0.8285354 -0.3992386 0.7392670
-0.4682674 0.0220608 0.7251706
0.4394375 -0.6324830 1.1020131
-0.4803011 0.1149104 0.7897002
0.4717984 0.0556879 1.3724501
-0.4883756 0.1602705 1.0305841
-0.1212072 -0.0984097 0.5761365
-0.4765151 0.0252437 0.7352810
0.2036868 0.1971993 1.1981267
-0.3540342 -0.2828365 0.8263994
-0.4615515 0.0165968 0.7101069
-0.3583677 -0.2836856 0.8362889
-0.6009621 0.4088718 0.6393984
-0.2974572 0.0071963 1.3021283
0.1994713 0.1556212 1.0979496
0.5257978 -0.7085664 1.3177921
-0.5208099 0.1825714 1.0962131
-0.6893823 0.3161827 1.0867529
-0.5348877 -0.1487005 0.6084533
-0.6513444 0.4611638 0.6962638
0.5493678 -0.8193245 1.2401611
-0.5326941 0.1878377 1.1137003
0.5719113 -0.8256910 1.2207623
0.5977103 -0.8955600 1.2466997
-0.4694515 0.1052645 0.7722662
-0.4949158 0.0814168 0.9737988
-0.5493374 -0.2653606 0.8084563
0.0962060 0.3041376 1.3864449
-0.5557089 0.0282696 0.6839185
-0.9826902 -0.7988661 1.2094080
-0.4596620 -0.0437976 0.4575066
-0.4618020 0.0971769 0.7220623
0.4621711 -0.6197693 0.8051955
-0.6170048 -0.3560532 0.7903331
0.3545722 -0.0662167 0.5307059
0.6681663 -0.8304082 1.6847801
0.4863751 -0.1909969 0.7485415
-0.3393323 0.2477052 0.6465821
0.4353546 -0.7000583 0.7413834
-0.7582210 -0.4222512 1.1461138
-0.2627067 0.4975553 0.8594038
0.5097964 0.0756475 1.4876771
0.4540404 -0.5908743 0.7661307
0.4519315 -0.5893102 0.7617627
-0.4693048 -0.0570985 0.4553444
-0.5877357 -0.2872982 0.8848687
-0.6383410 0.2745522 1.0012625
0.5475974 -0.8098609 1.1818135
0.0004291 0.3460933 1.8241503
-0.3799253 0.5419382 0.9512262
-1.0169966 -0.8173071 1.2570171
-1.0293316 -0.7702325 1.1093440
-0.2642002 0.6306448 1.3224025
-0.9671785 -0.8017437 1.1297992
0.5512322 0.1009412 1.6199934
0.4939759 -0.7706347 0.8472540
-0.5800138 -0.2739129 0.9988412
-0.4640855 -0.0005005 0.5959043
-0.3679920 0.1038812 1.7550116
-0.4639833 0.2317278 0.6183760
0.5830964 -0.2364691 1.4682050
-0.3797661 0.7157196 1.4891483
0.4695733 -0.2875823 0.9720393
0.7718907 1.1014584 2.1853931
-1.1122535 -0.5756240 1.8807331
-0.3279296 0.2364342 0.6324726
-0.1199760 0.6486659 1.1088436
-0.0678934 0.9035549 1.9364229
-0.6682038 0.2663940 1.0509852
-0.6250950 0.4761391 0.8118984
-0.6919426 0.2623454 1.0712712
-0.6187344 0.4661114 0.7881063
0.1358983 0.8312975 1.5602446
-0.4366664 0.2450041 0.6382155
0.8768425 0.0325835 2.8118334
0.1314406 0.8073618 1.5268303
-0.0545440 0.7615761 1.7225765
0.1374437 -0.6631392 2.2491105
0.6149788 -0.7179983 1.7652320
-0.2165110 0.5827836 0.8410383
-1.0670134 -0.5588429 1.7872680
-0.6224107 0.4597324 0.7777179
-0.2553403 0.1774903 0.7620445
-0.2360921 0.6369830 1.3002388
-0.3442997 0.5909638 1.4074385
0.2466358 0.3508596 1.6553624
-0.5829324 -0.6055384 1.9901310
-0.2389309 0.7409410 1.4384527
-0.0907099 0.9032884 1.9210079
-0.6504362 0.2536533 1.0211524
0.0908294 -0.5823586 1.8719007
-0.2632990 -0.0057009 1.3019135
-0.6099164 0.4274875 0.6491517
-0.4082598 0.5648807 0.9480409
-0.4567170 0.2932135 2.0515499
-0.4666049 0.6685466 1.3206530
0.6539366 -0.5661976 1.7501251
0.0593338 0.0614472 2.0167181
-0.7115771 0.4235825 0.7117360
-0.4200122 0.5919596 0.9817365
-0.1536484 0.6513666 1.1115313
-0.1215929 0.0664390 1.8757768
0.1036623 -0.5698856 1.7900294
0.4264829 0.8370857 1.4894946
-0.6099979 0.4138035 0.6056752
-0.5486109 0.2246850 0.6024811
0.5530971 -0.2300847 1.4228188
-0.5529562 0.2256496 0.6032668
-0.3659186 0.7575895 1.5667115
-0.4411030 0.0311662 0.7039182
0.4844427 -0.4321431 1.0135325
0.5307313 0.0821008 1.5425744
-0.6922667 0.2475356 1.0530804
-0.4915577 0.2149986 0.5882416
0.1972112 0.7951492 1.3928665
-1.0556042 0.0527590 1.7436816
-0.3343616 0.2419123 0.6391024
0.4225047 -0.3300964 0.6933711
-0.4739244 -0.0382942 0.4690244
0.4609779 -0.1346913 0.8288197
-0.4983306 0.2524441 0.6460479
0.4714372 -0.7516264 0.9790846
0.5952672 -0.8940108 1.2399626
-0.5917209 -0.0366506 0.6332913
0.3991478 -0.3295103 0.6283702
0.4579918 -0.1357286 0.8228515
-0.5995092 -0.0153410 0.7357517
-0.1139101 0.9453397 2.0661650
-0.0056592 0.6897759 1.1870419
0.2687782 0.9535863 1.9460611
-0.6421212 0.4882647 0.8142771
-0.6751010 0.2704221 1.0653806
-0.3165096 0.5099060 0.7587593
-0.6253741 0.4581235 0.7761250
-0.3147450 0.5693116 0.9814195
-0.4551357 0.0075560 0.6672240
-0.5485944 0.8021423 1.7622027
-0.1379427 0.2280755 1.3249484
0.5686880 -0.6432494 1.1252996
-0.6221312 0.4638762 0.7854740
0.1090119 0.6960073 1.2186598
0.7305258 -0.5294002 2.0206168
-0.2854934 0.5774787 0.9478247
-0.2403942 0.7879951 1.4996477
-0.3478559 0.7034407 1.4801277
-0.3003680 0.5123170 0.7621182
-0.2490905 0.6821007 1.3836801
0.5588601 0.1039226 1.9067786
-0.0566327 0.4320603 1.5334563
0.4248188 -0.3301973 0.7006010
0.5804996 -0.8761172 1.2041353
-1.0606439 0.0721705 1.5723351
-0.6496028 0.5528324 0.9392975
-0.8447434 0.0104421 1.2507458
-0.4740002 0.6506587 1.2309506
-0.3892223 0.7481757 1.5432757
-0.4754160 0.2301335 0.6151225
-0.4443055 0.0361557 0.5597417
-0.7816506 0.4545320 0.7816623
0.1532461 0.0833647 1.0168282
-0.7810792 0.2476329 0.7657275
-0.5946139 0.1890845 0.5963913
-0.4252231 0.6097631 0.9976489
-0.4871445 0.2465811 0.6358953
0.3097636 0.0665073 1.2095273
0.6622917 -0.1861965 1.9871584
0.4664980 -0.2925333 0.9630044
-0.0801704 0.7049142 1.5857209
0.5084517 -0.0707981 1.6082563
0.2570301 1.0405240 2.1225109
-0.4386893 0.0345852 0.5527194
-0.5870007 0.1799046 0.7683777
0.4314827 0.0386708 1.0042856
-0.2994413 0.5141560 0.7660570
-0.5917248 0.1858298 0.7720749
-0.4597677 -0.0054330 0.5770211
0.4976971 -0.1805519 0.8020442
0.6755634 0.9580569 1.9485704
-0.0239280 0.6499006 1.1367379
0.5312549 0.1502946 1.8598703
0.4787943 -0.1816083 0.7702892
-0.2592326 0.6955264 1.3861783
-0.5571773 0.1666309 0.5591959
0.6938134 -0.5867129 1.8509514
0.4038528 -0.3238364 0.6617311
0.3138829 1.0952061 2.1622543
-0.5283076 -0.2801806 0.7935281
-0.2537963 0.7313989 1.5242866
-0.1369955 0.2247126 1.3165133
-0.0018070 0.3322855 1.7796947
-0.0012950 0.3390796 1.8052647
0.1619559 0.1004086 1.0545187
-0.0056014 0.6168975 1.0884116
-0.5274658 -0.5726329 1.8524803
0.5068166 -0.2533329 1.0584172
-0.4078322 0.5522683 0.9505130
0.3078426 -0.3505820 0.6350048
0.3840520 -0.0573482 0.5706784
-0.3152449 0.1771904 0.5981541
-0.4617738 0.2288324 0.6138741
-0.4820550 -0.2795545 0.7694115
0.7154095 0.9714471 2.0024140
-1.9912454 -0.7641072 3.1164019
-0.2991506 0.0794676 1.6737813
0.4859973 0.8192571 1.5246544
-0.9365582 -0.4214968 0.8362615
0.4591967 -0.2942599 0.9323887
-1.6557795 -1.1443547 1.7735434
-1.5515150 -1.4526584 2.2285087
-1.9892392 -1.3424850 2.1364932
-0.3839743 0.5325902 0.9051002
0.7091780 0.9083599 1.7525634
-0.6143221 -0.6135710 2.0526206
0.5310905 0.8435380 1.5703824
0.4938449 -0.3890422 1.0542405
0.4159813 0.8500060 1.8491827
0.1627629 0.2982687 1.4070410
-0.3205896 0.2969101 0.8525819
0.4205764 0.7824991 1.4436296
-1.1663455 -0.8508182 1.2635527
-0.0012992 0.6381924 1.1179910
-0.1157932 -0.0761765 0.2034034
