-0.8014124 0.0775905 1.2310066
-0.7109175 0.0619951 1.1497176
-0.6744722 0.1169701 1.1200300
-0.3682717 0.0533445 1.1030440
-0.6223193 -0.3836124 1.0539528
-0.7097633 0.0702927 1.1658500
-0.6330446 0.0554825 1.1452084
-0.8096753 -0.1728157 1.1834571
-0.6852188 0.0390314 1.1065786
-0.5471575 -0.1716602 1.1013381
-0.3022385 0.0494974 1.0916049
-0.3276720 0.0519075 1.0964661
-0.6466194 0.0677084 1.1370203
-0.7825284 -0.1129631 1.1786450
-0.8053675 -0.1839027 1.1798435
-0.8094758 -0.1823290 1.1766342
-0.8045807 -0.1944595 1.1758320
-0.3661775 0.0580609 1.0925372
-0.6255728 0.0409355 1.1189007
-0.2725025 -0.2727003 1.0074012
-0.4308447 -0.1630214 1.0588070
-0.5116164 -0.2121294 1.0963454
-0.5386639 -0.1780289 1.1066859
-0.5884256 -0.4011377 1.0437084
-0.3966381 0.0555058 1.1000413
-0.5637682 -0.1850909 1.0880969
-0.5456246 -0.1720857 1.0923883
-0.3398337 0.0383541 1.0948176
-0.6424071 0.0599665 1.1250722
-0.5102344 -0.2039288 1.0894563
-0.7947173 -0.1091148 1.1814060
-0.7933371 -0.1086149 1.1791648
-0.7827937 -0.1182434 1.1798251
-0.7718767 0.0538790 1.1826622
-0.5495682 -0.1598777 1.1290959
-0.8021860 -0.1525881 1.1745677
-0.6275967 0.0415590 1.1020834
-0.3106483 0.0514688 1.0921479
-0.6387680 0.0486461 1.1155620
-0.6463550 0.0486676 1.1188731
-0.3294636 0.0388466 1.0826313
-0.5090166 -0.1975939 1.0762305
-0.6595724 0.0678591 1.1206323
-0.3469888 0.0439398 1.0903302
-0.6864723 0.0714673 1.1257671
-0.4906912 -0.1802202 0.9533090
-0.6461002 0.0876544 1.1229078
-0.6933385 0.0602874 1.1473475
-0.6496917 0.0810170 1.1465706
-0.3469402 0.0671957 1.0896779
-0.7362115 0.0648256 1.1608570
-0.7593271 0.0703648 1.1744841
-0.5040424 -0.1608425 1.0990531
-0.7611026 0.0306039 1.1872737
-0.6650094 0.0649999 1.2264104
-0.4902276 -0.2039891 1.0805776
-0.7145316 0.0627780 1.1620457
-0.2707008 -0.2949757 1.0176078
-0.7648076 0.0799629 1.1753085
-0.6905979 0.0866497 1.1325386
-0.4234140 -0.1716986 1.0426267
-0.7266651 0.0581419 1.1492474
-0.7062320 0.0683928 1.1628584
-0.7496040 0.0622643 1.1588185
-0.0887564 0.0957473 1.0898900
-0.6713061 0.0947539 1.1350954
-0.6167895 0.1863753 1.1113131
-0.6704137 0.0956064 1.1348938
-0.4927615 -0.2087201 1.0879295
-0.6907663 0.1472492 1.1296890
-0.5846213 -0.0419517 1.0845338
-0.6175985 0.1034865 1.1020871
-0.6178976 0.1382307 1.1063799
-0.7121292 0.1050913 1.1264695
-0.3651057 0.0390064 1.0978155
-0.6180633 0.1266154 1.1036909
-0.0494988 0.0491340 1.0622741
-0.2881225 -0.1622272 1.0740824
-0.2976399 -0.1644006 1.0642394
-0.4449257 -0.1269513 1.0871940
-0.3227231 0.0383404 1.0930849
-0.4208756 -0.0029596 1.0778346
-0.8577693 0.0411930 1.1355104
-0.8702478 0.1066125 1.1520168
-0.7008975 0.1592062 1.1294802
-0.7039244 0.1381111 1.1288955
-0.8449519 -0.0187932 1.1966021
-0.7823768 0.0438987 1.1822104
-0.4368953 -0.3116761 1.1002704
-0.8377005 -0.1277551 1.1856408
-0.8514276 -0.1302429 1.1888764
-0.6822378 0.0393661 1.1579375
-0.8681173 -0.2340517 1.1831491
-0.3594053 0.0461820 1.1002107
-0.8167995 -0.0054352 1.1925956
-0.8130184 -0.1716367 1.1783069
-0.4261218 -0.2681742 1.0319610
-0.4220015 -0.0057327 1.0629984
-0.4175896 -0.0032698 1.0674125
-0.8100442 -0.0381413 1.1887549
-0.8441071 -0.0290212 1.1957463
-0.5843647 -0.3777370 1.0830247
-0.8104218 0.0464439 1.1777635
-0.8360039 -0.0194293 1.1937835
-0.8372426 -0.1939105 1.1769514
-0.8514082 -0.0178085 1.1998459
-0.8649413 -0.0789511 1.1943778
-0.8840323 -0.1016187 1.1949998
-0.6215941 -0.3943631 1.0720060
-0.7428418 0.0461945 1.1714834
-0.8679253 -0.1801826 1.1847683
-0.8732147 -0.2254812 1.1832178
-0.8625812 0.0334970 1.2123500
-0.8177050 -0.0237185 1.1928303
-0.8468894 -0.0094300 1.1969708
-0.7990192 0.0470701 1.1824946
-0.6472406 0.0670499 1.1849823
-0.8522866 -0.1208122 1.1893787
-0.8520471 -0.1730398 1.1875457
-0.8749510 -0.0977744 1.1947780
-0.9342855 0.0407402 1.1497450
-0.8556622 -0.1308920 1.1907852
-0.7622638 -0.2565847 1.1627686
-0.9408615 0.0747965 1.1503150
-0.9098170 0.0810073 1.1455663
-0.9686401 0.0631961 1.1547389
-0.9650392 0.0818493 1.1565590
-0.9624985 0.0581493 1.1544644
-0.6206304 0.0665704 1.0982424
-0.7781292 0.0760261 1.1250823
-0.7185623 0.1136765 1.1279420
-0.9256508 0.1078841 1.1611440
-0.9889653 0.0306996 1.2271619
-0.8368877 0.0592608 1.1338831
-0.7083688 0.1059401 1.1248009
-0.6531380 0.0649380 0.9522096
-0.8266129 0.1049384 1.1441613
-0.2917527 -0.2550768 1.0680597
-0.2812636 -0.1854983 1.0805584
-0.3262297 0.0914862 1.0798008
-0.6857548 0.0411667 1.1127404
-0.3208386 -0.0035765 1.0497620
-0.7992830 0.1138564 1.1417253
-0.8398438 0.1133966 1.1483235
-0.3102603 0.0952605 1.0954434
-0.8397186 0.1106614 1.1455700
-0.8709574 0.1061961 1.1508702
-0.9221410 0.1140185 1.1624380
-0.8497751 0.0712116 1.1342778
-0.8808910 0.1133236 1.1547930
-0.8745589 0.1058102 1.1534797
-0.6725801 0.1229004 1.1278683
-0.8944350 0.1129792 1.1563270
-0.7756907 0.1014449 1.1301867
-0.8969618 -0.1218070 1.1975337
-0.8656585 0.0575056 1.1364213
-0.4374884 -0.1433041 1.0511311
-0.6546202 0.1354851 1.1099213
-0.6393855 0.1371882 1.1179321
-0.8160918 0.0745929 1.1245302
-0.6187020 0.0632016 1.1010985
-0.8349609 0.0705837 1.1289777
-0.9003607 -0.1392048 1.1946014
-0.9100617 -0.1580650 1.1950380
-0.8405187 0.1074572 1.1464397
-0.3213315 0.0448399 1.0911509
-0.7875529 0.0808243 1.1250025
-0.9631371 0.1140935 1.1695795
-0.8110381 0.0709785 1.1270046
-0.7146480 0.0536536 0.8256896
-0.7579135 0.1047489 1.1226083
-0.3239954 0.1068992 1.1674601
-0.9754333 0.0628634 1.1557385
-0.8964266 0.0810132 1.1433262
-0.6408936 0.0421198 1.1021870
-0.7166780 0.1318247 1.1608623
-0.7791048 0.0319240 0.8079546
-0.4228060 -0.1715438 1.0470171
-0.3413396 0.0483214 1.1096240
-0.4414952 -0.3023800 1.0333568
-0.5962048 -0.4067692 1.0428149
-0.4233090 -0.1718310 1.0460517
-0.5695642 -0.1815779 1.1076984
-0.3436485 0.0396710 1.0905353
-0.8118947 -0.0341160 1.1906539
-0.6158481 -0.0153326 1.0869768
-0.8457360 -0.0956217 1.1901144
-0.8316795 -0.2043325 1.1822410
-0.5929851 -0.0351041 1.0866539
-0.3620161 0.0481023 1.1006396
-0.2638219 -0.4069549 1.0124798
-0.8290324 -0.1524900 1.1822152
-0.4339728 -0.0372672 1.0678141
-0.2802860 -0.1695700 1.0217303
-0.5130028 -0.1981269 1.1038737
-0.8096395 -0.0177573 1.1913524
-0.8377294 -0.2081956 1.1783899
-0.8212968 0.0005201 1.1940129
-0.4964205 -0.2307472 1.0745631
-0.7872641 0.0449497 1.1221063
-0.8484122 -0.1198346 1.1888548
-0.8636825 0.0358261 1.2125806
-0.8699889 -0.0976148 1.1950063
-0.5245883 -0.1812237 1.1212752
-0.5003694 -0.2079916 1.0756378
-0.5053358 -0.1925455 1.0990417
-0.7769227 0.0518285 1.1197743
-0.5124552 -0.2018107 1.0862387
-0.7797514 0.0511261 1.1378354
-0.8567643 -0.0189563 1.1981035
-0.8280664 0.0173829 1.1977549
-0.5194697 -0.1653908 1.0619570
-0.8173895 0.0513648 1.1244800
-0.8775464 -0.1488704 1.1903455
-0.8390408 -0.0242185 1.1940261
-0.7836609 -0.1122797 1.1836772
-0.7645512 0.0746270 1.1211051
-0.8616992 -0.0192835 1.1988486
-0.8807340 -0.1531055 1.1897336
-0.8026523 0.0540382 1.1208651
-0.8156140 0.0495719 1.1674803
-0.5900367 -0.1461045 1.0750046
-0.5833873 -0.1399201 1.0695324
-0.7329517 0.0697895 1.1185441
-0.8291143 0.0374849 1.1284267
-0.5837932 -0.1400361 1.0692040
-0.7384309 0.0383668 1.1226300
-0.7104684 0.0488482 1.1062466
-0.7235455 0.0501559 1.1101078
-0.7561988 0.0434247 1.1619385
-0.7444347 0.0504960 1.1140457
-0.8102864 -0.1780906 1.1745152
-0.8437761 -0.2255427 1.1787993
-0.4808137 -0.1944102 1.0805976
-0.8337458 -0.1798379 1.1766806
-0.8758371 0.0701233 1.1379255
-0.8146827 0.0806798 1.1288658
-0.7469549 0.0811590 1.1185448
-0.8635080 0.0588170 1.1331488
-0.9149519 -0.1280477 1.2040415
-0.8899382 -0.1826003 1.1884443
-0.9501119 -0.1663915 1.2018842
-0.3215159 -0.1730578 1.0363249
-0.7727372 -0.0210709 1.1796545
-0.4172439 -0.2567979 1.0489835
-0.4342999 -0.2750348 1.0315655
-0.1515204 -0.4439463 1.0828438
-0.3150901 0.0352201 1.0893781
-0.9699036 0.1023892 1.3215065
-0.9874833 0.0324123 1.2059292
-0.6351310 0.0283815 0.8118721
-1.0576578 0.0372796 1.1686594
-0.6457492 0.0618595 0.9552197
-0.8261231 -0.1546395 1.1852844
-0.5180175 -0.1655964 1.0655922
-0.7074174 0.0244968 0.8064147
-1.0567188 0.0369751 1.1681410
-0.7405522 0.0317368 0.8053877
-0.7758626 0.0331553 0.8015214
-1.0066302 0.0812889 1.1645440
-0.7158728 0.0380291 1.1092253
-0.9348825 0.1134959 1.1644826
-0.8819143 0.0819864 1.1418297
-0.7184716 0.0331074 0.7972388
-0.7100363 0.0221435 0.8042514
-0.7939124 0.0289723 0.8167968
-0.8903195 0.0713944 1.1404419
-0.5109314 -0.1685188 1.0869124
-0.5781648 0.0305879 0.7861612
-0.8278283 -0.2147683 1.1718678
-0.7477186 0.0332044 0.8046092
-0.9595384 0.0360760 1.1474155
-0.4559246 -0.1937336 1.1639359
-0.7089612 0.0242922 0.8073171
-0.7130098 0.0403182 1.1013172
-0.4029721 0.0879698 1.0835305
-0.3115042 0.0901300 1.0958631
-0.5847182 -0.0400228 1.0846626
-0.4418947 -0.0263140 1.2030053
-0.7096434 0.0554903 1.1202669
-0.6897576 0.0465411 1.1073257
-1.1869196 0.0537974 1.3576503
-0.8136781 -0.0932426 1.1847572
-0.8447040 0.0435009 1.1284773
-1.1097040 0.1319135 1.2758745
-1.0036025 0.1140957 1.1766372
-0.8630149 -0.0748883 1.1941483
-0.8692811 -0.0793295 1.1912857
-0.7752680 0.0478546 1.0755869
-0.6167661 0.0448836 1.0993108
-0.8663703 -0.1331774 1.1894790
-0.7456926 0.0377096 1.1166203
-0.8472938 -0.0097924 1.1981016
-0.2952246 0.0583788 1.1033790
-0.8673197 -0.1323440 1.1930269
-0.7553422 0.0414064 1.1592987
-0.6681840 0.0406227 1.1092420
-0.5522748 -0.1641217 1.1039999
-0.8796110 0.1667774 1.1578159
-0.6998998 0.1957674 1.1355031
-1.0780383 0.1442926 1.1746927
-0.6978747 0.1974306 1.1376157
-1.3954332 -0.4151233 1.2298858
-0.8990145 -0.4483673 1.1701419
-1.0775232 0.1679366 1.1763388
-1.4280902 0.1022058 1.3616724
-0.6854915 0.1636143 1.1283422
-0.6577657 0.1768617 1.1337748
-0.8864030 -0.0604274 1.2042292
-0.7226491 0.0812830 1.1279083
-1.3354971 -0.1413603 1.2963852
-1.2642388 0.0902423 1.2627909
-0.9892522 0.0727680 1.1657102
-1.4116465 -0.4233116 1.2526014
-0.6926638 0.1963281 1.1346564
-1.3355985 -0.0405883 1.2105379
-0.8358356 0.0569755 1.1274105
-0.9948525 -0.2557916 1.2167678
-0.6918065 0.1453826 1.1262859
-1.3816600 -0.2954194 1.2584237
-0.7336177 0.0849356 1.1236677
-0.6137639 0.0749625 1.1108314
-0.8855553 0.0347820 1.1348133
-0.7497603 0.0617237 1.1148949
-0.7372068 0.0534403 1.1170416
-0.8517866 -0.1206519 1.1886595
-0.8261134 0.1064782 1.1451735
-0.8055722 0.0619878 1.1265616
-0.8183487 0.0510092 1.1256735
-0.7098777 0.0575062 1.1180581
-0.7511228 0.0664779 1.1215850
-0.8262855 0.0502165 1.1263562
-0.4432685 -0.1372403 1.0521353
-0.6826841 0.0449381 1.1127509
-0.8299661 0.0736332 1.1282023
-0.7747594 0.0816611 1.1235397
-0.7464233 0.1130185 1.1328586
-0.9982644 0.1047627 1.1753863
-0.8490764 -0.2319038 1.1854229
-0.4287174 -0.1659075 1.0497148
-0.4100216 -0.2491685 1.0592726
-0.9461461 0.0737278 1.1541533
-0.8374451 0.0727509 1.1318165
-0.3951448 0.0562429 1.1003621
-0.3949766 0.0564486 1.0997057
-0.9958921 0.0747832 1.1601207
-0.9700893 0.1033165 1.1672798
-1.0177354 0.1136262 1.1787379
-0.7492976 0.1064861 1.1317469
-0.8810137 -0.1777973 1.2003709
-0.4890225 -0.1920280 1.0804178
-0.8019020 -0.1920020 1.1691995
-0.8380345 -0.0196616 1.1950694
-0.8572040 -0.2347103 1.1797282
-0.8045496 -0.1937635 1.1760138
-0.8739790 -0.2253977 1.1837461
-0.8204530 -0.2346711 1.1746691
-0.8907377 -0.1562111 1.1909444
-0.8566878 -0.0631249 1.1940504
-0.8357353 -0.0092961 1.1949400
-0.8497470 -0.1031142 1.1912687
-0.5826647 -0.1397172 1.0700383
-0.4149654 -0.0287401 1.1513796
-0.4883300 -0.2030533 1.0774375
-0.6428452 -0.2249402 1.2903066
-0.4886755 -0.2241244 1.0774646
-0.5381910 -0.1773652 1.0994177
-0.6031928 0.0535318 1.2037042
-0.8285161 0.0466109 1.1843934
-0.6022438 0.0561025 1.2087564
-0.4956054 -0.2224558 1.0807780
-0.5457616 -0.1862027 1.0931765
-0.8408885 -0.1840325 1.1824765
-0.8239419 -0.1327043 1.1823491
-0.8470334 -0.0842771 1.1934061
-0.8250698 0.0449487 1.1907617
-0.8272588 -0.2011519 1.1721240
-0.7693835 0.0404747 1.1613533
-0.5019556 -0.1840893 1.1017975
-0.8267323 0.0069480 1.1911160
-0.8902203 -0.1566039 1.1891979
-0.7870922 -0.1103109 1.1787025
-0.7840849 0.0458208 1.1856923
-0.5116885 -0.1945786 1.0785754
-0.7948231 -0.0632543 1.1426407
-0.8171812 -0.1668802 1.1810211
-0.8210770 -0.2163013 1.1437130
-0.4967255 -0.2091544 1.0799117
-0.4965736 -0.2093685 1.0799623
-0.7431008 0.0461774 1.1719021
-0.5438216 -0.1871026 1.0913823
-0.8438775 -0.0295224 1.1946838
-0.8526222 -0.2311051 1.1792885
-0.6679198 0.0479442 1.1145562
-0.4745604 -0.1762725 1.0987197
-0.8380967 -0.1868486 1.1787547
-0.8832083 -0.1402807 1.1969604
-0.7236201 0.0605687 1.1192837
-0.8090639 -0.0987728 1.1814574
-0.8248102 0.0434436 1.1441450
-0.8596295 -0.0207198 1.1977733
-0.8735899 -0.2242693 1.1884409
-0.8891410 -0.1454625 1.1926800
-0.8326676 -0.0043895 1.1980233
-0.8489461 -0.1219299 1.1988286
-0.8734171 -0.0911944 1.1975178
-0.8992641 -0.1393503 1.1932443
-0.8806090 -0.1399923 1.1923252
-0.9113358 -0.1444380 1.1991564
-0.8891689 -0.0581568 1.1989657
-0.9276283 0.0516832 1.1471761
-0.7974094 0.0445187 1.1204041
-1.0804380 0.1015055 1.1765989
-1.0569946 0.0597547 1.1717039
-0.8996179 0.0408794 1.1536244
-0.9724103 0.0589661 1.1540504
-0.3771329 0.0602833 1.0938194
-0.8726317 -0.2127937 1.1897024
-0.6688718 0.0536888 1.1003740
-0.6482920 0.0806382 1.1029460
-0.6352716 0.0730112 1.0975045
-0.8658768 0.0569414 1.1357658
-0.9153524 -0.1660320 1.1976269
-0.4933257 -0.2211566 1.0902719
-0.6814088 0.0627477 1.1047953
-0.8726825 0.0742318 1.1381869
-0.8447050 0.0744651 1.1326197
-0.6718273 0.0867526 1.1105886
-0.5873248 -0.3031439 1.0535482
-0.8394765 0.0363324 1.1283778
-0.8661423 0.0368336 1.1337032
-0.7714577 0.0676797 1.1195368
-0.7663885 -0.2595048 1.1686713
-0.8170242 -0.1723252 1.1788214
-0.8673084 -0.1851397 1.1858100
-0.7375193 0.0470208 1.1175901
-0.7366251 0.0872763 1.1255485
-0.7185209 0.0375598 1.1122147
-0.7046852 0.0416707 1.1169196
-0.7322389 0.0770081 1.1174843
-0.8013464 -0.1860899 1.1763443
-0.6137192 0.1114021 1.1136683
-0.8097027 0.0702592 1.1259842
-0.9264036 -0.1328376 1.1993822
-0.7184798 0.0691285 1.1145798
-0.8339086 -0.2127884 1.1753539
-0.8016189 0.0406361 1.1155527
-0.7232303 0.0437650 1.1092181
-0.7228163 0.0574385 1.1145817
-0.8642335 0.1642324 1.1530200
-0.7446097 0.0513702 1.1141340
-0.8402058 0.1071840 1.1464581
-1.0337939 0.0810819 1.1676121
-0.9897534 0.1061119 1.1733661
-1.0225765 0.0463726 1.2793381
-0.9994623 0.0928015 1.1998523
-0.4314039 -0.0355984 1.1285949
-0.6926001 0.0838497 1.1137788
-0.7072557 0.0842978 1.1175059
-0.7349887 0.0831846 1.1193806
-0.8330482 0.0399739 1.1271743
-0.7843856 0.0375255 1.1343008
-0.7868832 0.0561222 1.1221391
-0.6819436 0.0694004 1.1152185
-0.7198861 0.0583501 1.1214364
-0.7832246 0.0825413 1.1245553
-0.7463884 0.0548532 1.1191747
-0.9031078 -0.1456110 1.1938301
-0.8160017 0.0614233 1.1235752
-0.8371814 -0.1829878 1.1760970
-0.6175039 -0.1736843 0.9455732
-0.8453996 -0.1415927 1.1855557
-0.6818208 0.0711296 1.1174408
-0.8860347 -0.0545928 1.1983286
-0.8705778 -0.2017076 1.1834005
-0.7365910 0.0423173 1.1149769
-0.6770950 0.0550462 1.1092170
-0.7190826 0.0718857 1.1190509
-0.8555902 -0.2352162 1.1798856
-0.7761534 0.1106726 1.1419580
-0.7595934 0.0368228 1.1171626
-0.8292879 0.0532800 1.1235471
-0.7905645 0.0408159 1.1208847
-0.5006429 -0.1699297 1.0733457
-0.7768642 0.0742605 1.1211897
-0.8420767 -0.1454244 1.1853142
-0.7635579 0.0386309 1.1144228
-0.7852480 0.0739885 1.1222939
-0.6681564 0.0614575 1.1120003
-0.6393786 0.0849381 1.1102439
-0.8718151 -0.2383344 1.1873039
-0.8053153 0.0613766 1.1235081
-0.8052177 -0.1536635 1.1820606
-0.8721531 -0.0875091 1.1951925
-0.5703641 -0.1776309 1.0937095
-0.7771087 0.0387755 1.1444346
-0.8599381 -0.0619738 1.1982770
-0.8746744 -0.1324262 1.1970805
-0.8501545 -0.1081921 1.1865947
-0.8632475 -0.1199840 1.1909553
-0.8427414 -0.1691248 1.1847630
-0.8103536 -0.0255495 1.1884404
-0.8358951 -0.1854833 1.1814948
-0.8000531 0.0450684 1.1789185
-0.8137870 -0.0824043 1.1841941
-0.8380491 0.0415833 1.1859765
-0.8231971 -0.1807152 1.1762526
-0.8246675 -0.1654466 1.1822679
-0.8211839 -0.1595402 1.1802062
-0.8945874 -0.1476321 1.1930329
-0.8714674 -0.1792531 1.1959729
-0.8631689 -0.2388563 1.1924964
-0.8840646 -0.1700413 1.1828928
-0.6447023 -0.2218484 1.2759922
-0.8479689 -0.1668812 1.1782050
-0.8802629 -0.0885596 1.2069013
-0.8586843 -0.1028847 1.1971722
-0.8936621 -0.1766762 1.1884589
-0.8516762 -0.1006819 1.1909883
-0.8423302 -0.0637326 1.1910614
-0.7920459 -0.1134631 1.1791871
-0.7116113 0.0379774 0.7971677
-0.8861225 0.0508743 1.1395742
-0.8289807 -0.2074671 1.1768403
-0.8325574 0.0255669 0.8204014
-0.7232224 0.0742432 1.1129102
-0.6535204 0.0803716 1.1165824
-0.7758806 0.0342427 0.8018031
-0.7011832 0.0587226 1.1091447
-0.8999524 -0.1200583 1.2008109
-0.7739439 0.0293939 0.7944729
-0.7183543 0.0309759 0.7925257
-0.6398742 0.0249623 0.7885552
-1.1082672 0.0317276 1.2359850
-0.7678385 0.0313945 1.1855210
-0.7472642 0.0316222 0.8016573
-0.7170714 0.0292316 0.8184043
-0.4320868 -0.0336752 1.0680326
-0.7755671 0.0826847 1.1263328
-0.6191329 0.0453286 0.8460433
-0.9575516 -0.1713609 1.2049835
-0.8802083 0.0728133 1.1390983
-0.6367334 0.0267883 0.8087335
-0.4137484 -0.2456531 1.0524077
-0.7934914 -0.1581432 0.9053780
-0.7426284 0.0602884 1.1164556
-0.9000672 0.0627408 1.1425174
-0.9500697 -0.1666296 1.2042258
-0.8348063 -0.1175622 1.1834282
-0.7366550 0.0321507 0.8243689
-0.5596661 0.0421661 0.8053257
-0.5788567 0.0288848 0.7820357
-0.9043378 -0.1494816 1.1899754
-0.7409024 0.0551060 0.8734392
-0.6679911 0.1062241 1.1156982
-0.5834820 0.0257955 0.7774364
-0.8340111 0.1054587 1.1213529
-0.7181202 0.0354653 0.8004974
-0.7592004 0.0347548 0.8070782
-0.9273403 0.0748210 1.1489425
-0.7767787 0.0508286 1.1183132
-0.8881937 -0.1709179 1.1890723
-0.8869375 0.0356335 1.1364206
-0.8416921 0.0807816 1.1329292
-0.8860204 -0.1845390 1.1893805
-0.8908269 -0.1242353 1.1948463
-0.8465164 -0.2326283 1.1795818
-0.9003801 0.0616284 1.1411752
-0.8763843 -0.2316190 1.1805104
-0.8628615 -0.0276585 1.1990515
-0.9089690 -0.1224312 1.1969966
-0.8690768 -0.0826803 1.1884737
-0.8480635 -0.0160655 1.2019457
-0.9788193 0.0800711 1.1565931
-0.7819195 0.0712987 1.1214483
-0.6828039 0.0417983 1.1073792
-0.4332137 -0.2755128 1.0337768
-0.6790390 0.0279183 1.0636761
-0.2806155 0.0034558 1.0991830
-0.8934665 0.0844512 1.0849925
-0.7511760 0.0647092 1.1205636
-0.3881752 0.0586452 1.0970250
-0.8888383 0.1072903 1.1384763
-0.3060076 0.0962759 1.1049742
-0.9607646 -0.1552208 1.2076496
-0.8444283 0.0424571 1.1126879
-1.0495757 0.0549698 1.1862798
-0.7780434 0.0567375 1.1214124
-0.8246790 -0.0014166 1.1943461
-0.8135613 -0.0779490 1.1878601
-0.1835602 0.0151254 1.2007699
-0.4300398 -0.0358593 1.1337785
-0.6454489 0.1119752 1.1128653
-1.1314929 0.0532960 1.2618990
-0.7784352 0.0253170 1.1878173
-0.6336746 0.0486660 1.0963554
-0.3279253 0.0813612 1.0746071
-0.7579015 0.0312893 0.8013185
-0.7177138 0.0360609 0.8009497
-0.7720774 -0.2491256 1.1656871
-0.6917871 0.0266529 0.7974049
-0.7473599 0.0331293 0.8046395
-0.6833239 0.0260802 0.8273039
-0.6619764 0.0977861 1.1064361
-0.7535767 0.0768929 1.1628535
-0.4228466 0.0939344 1.0715007
-0.4229611 -0.2398246 1.0410165
-0.3994042 -0.2685683 1.4802313
0.2781928 0.2158123 1.9003187
-1.0145957 0.0596033 1.1642923
-0.8240525 0.0145737 0.8060188
-0.0711057 0.1763789 1.1645855
-0.1170276 0.0217965 1.2432429
-0.0816238 -0.0108499 1.1690762
-0.0134481 0.0835763 1.0356230
-0.0513112 0.0573714 1.0406071
-0.0432322 0.0541458 1.0427428
0.5259148 0.0701006 1.1596179
-0.0706930 0.0576383 1.0632443
-0.0260893 0.0589387 1.0609561
0.5327060 0.0416036 1.1776361
-0.0589067 0.0569087 1.0780597
-0.0436384 -0.2473405 1.5720384
-0.1096325 0.0087917 1.2241995
-0.6151574 0.0603455 1.1046559
-0.8408740 0.1135056 1.1494453
-0.7642541 0.0761964 1.1224370
-0.6972409 0.1747510 1.1326218
-0.6536064 0.0795814 1.1093187
-0.9135783 0.0742049 1.1452690
-0.7369353 0.0401362 1.1127249
-0.8631420 0.0318188 1.1255730
-0.8133534 0.1024007 1.1381712
-0.7860750 0.0560111 1.1221447
-0.9244096 -0.1260781 1.2021288
-0.7190435 0.0403525 1.1165787
-0.7199134 0.0475432 1.1330639
-0.8658594 0.0246630 1.2102383
-0.5632136 -0.1827424 1.1052781
-0.6964753 0.0635633 1.1196641
-0.8543591 -0.0955344 1.1921191
-0.5018036 -0.1813556 1.1039912
-0.8373811 -0.1261378 1.1866374
-0.8740570 -0.0974041 1.1948422
-0.4917437 -0.2036696 1.0783859
-0.5899752 -0.0312258 1.0920206
-0.5901691 -0.1467268 1.0708495
-0.4922293 -0.2100151 1.0748390
-0.8961704 -0.1219677 1.1961795
-0.5611582 -0.1837841 1.1097060
-0.5898193 -0.1465481 1.0740178
-0.8792248 -0.1305375 1.1926140
-0.6038890 0.0528042 1.2035209
-0.5915896 -0.1465805 1.0688988
-0.7559980 0.0647542 1.1560167
-0.4902451 -0.2108165 1.0772144
-0.8805979 -0.2326966 1.1846088
-0.7773073 0.0770337 1.1242530
-0.4922166 -0.1916490 1.0698100
-0.9126350 -0.1325375 1.1970761
-0.8204308 -0.2342888 1.1747893
-0.5006323 -0.1947499 1.1061147
-0.8760690 -0.1486609 1.1867863
-0.6690794 0.0393052 1.1072347
-0.8240450 0.0457509 1.1935617
-0.8303886 -0.1528815 1.1829925
-0.8043723 -0.1937285 1.1754309
-0.8525469 -0.2271360 1.1848067
-0.8434132 -0.0635858 1.1921916
-0.8164605 -0.1636105 1.1748971
-0.5063922 -0.1686931 1.0938822
-0.5062269 -0.1841469 1.0971475
-0.7607910 0.0397222 1.1613877
-0.5342710 -0.1771868 1.0989250
-0.8514955 -0.0195125 1.2099487
-0.7883598 0.0429110 1.1773870
-0.8160378 0.0381237 1.1623532
-0.8378479 -0.1700603 1.1950054
-0.8247376 0.0409976 1.1776613
-0.8281535 -0.1825062 1.1714485
-0.4790991 -0.1805330 1.0965259
-0.5048577 -0.1690524 1.0953724
-0.8123153 -0.0209854 1.1969332
-0.8789624 -0.1398184 1.1915723
-0.8624344 -0.1202126 1.1881331
-0.8706281 -0.2183748 1.1774457
-0.8295208 0.0042790 1.1998938
-0.8511060 -0.0962560 1.1905726
-0.8664644 -0.1197428 1.1954513
-0.4997176 -0.2022769 1.0784160
-0.5859870 -0.1394397 1.0644922
-0.8648245 -0.2331368 1.1817541
-0.8389421 -0.1154484 1.1872290
-0.7645676 0.0363532 1.1690277
-0.7589027 0.0238462 1.1791766
-0.8425491 -0.0754398 1.1924264
-0.7326950 0.0440476 1.1707934
-0.8185171 0.0449674 1.1803039
-0.5350252 -0.1787087 1.1036792
-0.8049175 -0.0266754 1.1938440
-0.4832278 -0.1696174 1.1012892
-0.8107211 -0.0205445 1.2087797
-0.4868404 -0.1789082 1.0886353
-0.5305201 -0.1712040 1.1144016
-0.8437594 -0.0155858 1.2004063
-0.8166631 -0.0059454 1.1910993
-0.8376496 -0.1233060 1.1852902
-0.8635341 -0.1814020 1.1833984
-0.8153000 -0.0123924 1.2048180
-0.8118723 -0.0927446 1.1905746
-0.8349897 0.0393293 1.1835070
-0.8337096 0.0389231 1.1831899
-0.5837922 -0.0400786 1.0870163
-0.8857171 -0.1313350 1.1927817
-0.8423815 -0.0812248 1.1905437
-0.6021436 0.0582482 1.2124957
-0.6436620 -0.2173759 1.2496197
-0.4962676 -0.2218047 1.0793457
-0.8911253 -0.1541003 1.1910443
-0.8577780 -0.0790884 1.1994619
-0.8058844 -0.0356993 1.1882656
-0.4954180 -0.2083422 1.0783751
-0.8392892 0.0698482 1.1332244
-0.5363051 -0.1679470 1.0579412
-0.6340553 0.0513887 1.1014045
-0.7881387 0.0694913 1.1261107
-0.7976073 0.0358260 1.1192753
-0.8874823 -0.1826432 1.1848445
-0.7236962 0.0489630 1.1182578
-0.6106121 0.0972943 1.1266469
-0.7072703 0.0868087 1.1201450
-0.6388739 0.0645477 1.1126370
-0.7915553 0.0368003 1.1213900
-0.7563661 0.0364438 1.1286653
-0.7608820 0.0392039 1.1212425
-0.8288160 -0.1288708 1.1854076
-0.6935298 0.0885876 1.1213126
-0.5812810 -0.0379069 1.0908622
-0.8172359 0.0351612 1.1293032
-0.7652447 0.0897007 1.1338767
-0.7693496 0.0384693 1.1194158
-0.8412397 0.1149769 1.1504320
-0.7966885 0.0334904 1.1144553
-0.8330751 -0.1751699 1.1820695
-0.5765823 -0.0358702 1.1018353
-0.8478368 -0.2292433 1.1801933
-0.6691598 0.0513699 1.1040154
-0.8787446 -0.1532608 1.1975080
-0.6491629 0.0448123 1.1069623
-0.9168054 -0.1155951 1.1989938
-0.8184428 0.0792160 1.1297460
-0.7242855 0.0448625 1.1112400
-0.6693438 0.0531249 1.1065496
-0.7899371 0.0235670 0.8075609
-0.7778777 0.0573459 1.1199155
-0.8049058 0.0458768 1.1676344
-0.8260931 0.1129999 1.1449444
-0.7951623 0.0308077 0.8198827
-0.9507175 0.0813919 1.1525211
-1.0288608 0.0706950 1.1667757
-0.7182003 0.0340893 0.7989416
-0.2776271 0.0033346 1.1020337
-0.6806770 0.0353092 0.8480908
-0.8396462 0.1071802 1.1474202
-0.6389988 0.0465095 1.1292701
-0.7697772 0.0700969 1.1208560
-0.8728588 -0.2262167 1.1836740
-0.6512591 0.0534375 1.0709006
-0.7111086 0.0401775 0.8004338
-0.4410198 -0.1380488 1.0517881
-0.9529390 -0.1683646 1.1941146
-0.2779122 -0.2421651 1.1951554
-0.7716109 0.1139658 1.1374835
-0.4674548 -0.1848045 1.1317672
-0.3058655 0.0505397 1.1084826
-0.2881838 -0.2567288 1.0706469
-0.7436472 0.0902847 1.0667111
-0.9995887 0.0704186 1.1579765
-0.9262289 0.1036988 1.1573597
-0.9880093 -0.2510612 1.2056161
-0.9640118 0.1054733 1.1679058
-0.3769788 0.0516121 1.0926336
-0.7413562 0.0328537 0.8590615
-0.2694279 -0.1886847 1.0917807
-0.7344335 0.0841302 1.1210394
-0.8294512 -0.1672735 1.1774939
-0.8797466 -0.1517541 1.1948524
-0.8410758 -0.1231936 1.1881394
-0.8425291 0.0363258 1.1564376
-0.9791758 0.0318402 1.1806911
-0.9111909 0.0348873 1.1885604
-0.8970512 0.0402755 1.1815578
-1.0033684 0.0332284 1.1905494
-1.1967551 -0.2692545 1.2037148
-1.0224781 0.0348832 1.1940426
-0.9161281 0.0381056 1.1878217
-0.8327864 -0.1498279 1.1910203
-0.8039884 0.0343264 1.1686329
-0.8299309 -0.2222122 1.1485102
-0.8249723 -0.1716845 1.1814395
-0.7725212 0.0685127 1.1226411
-0.8046716 0.0646449 1.1265204
-0.6713727 0.0903172 1.1182594
-0.7623610 0.0841341 1.1252391
-0.7728243 0.0679513 1.1214526
-0.8493874 -0.0919857 1.1916546
-0.7043110 0.0380081 1.1109117
-0.6145399 0.0612832 1.1095655
-0.8500026 -0.0658768 1.1928195
-0.6956254 0.0723197 1.1161355
-0.7461041 0.1167696 1.1380076
-0.7600263 0.1173862 1.1410131
-0.6249105 0.0515734 1.1076188
-0.7229075 0.0786999 1.1187592
-0.6249225 0.0868642 1.1153605
-0.9093725 -0.1568340 1.1942114
-0.7666292 0.0570193 1.1256690
-0.8457984 -0.0132681 1.1977613
-0.7246177 0.0446699 1.1101750
-0.8315286 0.0616876 1.1275120
-0.6975743 0.0651939 1.1220874
-0.8809229 -0.1747898 1.1946166
-0.8027290 0.0972828 1.1417726
-0.8683953 -0.0848808 1.1906017
-0.8632073 -0.0736787 1.1946614
-0.7109756 0.0425983 1.1136262
-0.8617939 0.0201867 1.2023922
-0.6401228 0.0439520 1.1051596
-0.9036879 -0.1718917 1.1950709
-0.7093735 0.0556015 1.1150389
-0.8497381 -0.1702200 1.1861408
-0.7984160 0.0337556 1.1175420
-0.6816132 0.0397127 1.1102192
-0.4934038 -0.1916445 1.0688605
-0.6671987 0.0461167 1.1113024
-0.6908896 0.0685154 1.1149571
-0.7474015 0.0823185 1.1201196
-0.7871743 0.0565780 1.1227944
-0.8048799 0.0444304 1.1234685
-0.7269200 0.0451302 1.1077590
-0.8187525 0.0506149 1.1253422
-0.7428701 0.0348050 1.1107316
-0.8038521 0.1180831 1.1508189
-0.8202791 -0.1586407 1.1815456
-0.5098848 -0.1655486 1.0685102
-0.7421905 0.0484953 1.1152313
-0.4878986 -0.2142936 1.0975866
-0.6720634 0.0884555 1.1148823
-0.9656058 0.1077001 1.1698817
-0.8313330 0.0740487 1.1301912
-0.6551784 0.1355569 1.1108851
-0.8804995 0.1653849 1.1580902
-0.6261168 0.0807184 1.1087191
-0.6538615 0.0798830 1.1106629
-0.7067989 0.1090769 1.1264445
-0.4324159 -0.1444427 1.0510098
-0.5911286 -0.1367801 1.0625297
-0.9276642 0.0505336 1.1452947
-0.7447741 0.0546131 1.1137185
-0.7721348 0.0344864 1.1152797
-0.6142601 0.0480631 1.1048962
-0.7881581 0.0812270 1.1254960
-0.8477281 -0.1000941 1.1897589
-0.6177981 0.1859343 1.1116929
0.4789723 -0.1240018 1.1411554
0.3229006 0.1890193 1.2629699
0.4753304 0.3770503 1.2138181
0.5245629 0.0638892 1.1850916
-1.1622374 -0.0176233 1.1846442
-1.1614721 -0.0179201 1.1837801
-0.8673256 -0.1709239 1.1857052
-1.1601547 -0.0176680 1.1838335
-0.7715706 0.0325221 1.1880391
-1.1729431 -0.2890913 1.1627295
-0.8756915 -0.2345980 1.1836381
-0.9024563 -0.1729725 1.1925420
-0.8495128 -0.1219503 1.1940857
-0.8787158 -0.0960476 1.1949123
-0.8063897 -0.0334705 1.1936783
-0.8557982 -0.0962490 1.1917475
-0.8794671 -0.1204322 1.1933306
-0.8458650 -0.0643021 1.1925610
-0.9019914 -0.1015603 1.2713287
-0.8307427 -0.0155087 1.1943460
-0.8458856 -0.0666052 1.1979679
-0.8622344 -0.1197349 1.1896003
-0.8415008 -0.0049409 1.2046820
-0.8198712 -0.0021548 1.1930330
-0.8913525 -0.1422478 1.1898205
-0.8190190 -0.0112854 1.1945754
-0.8450075 -0.0962205 1.1908369
-0.8960213 -0.1527797 1.1929032
-0.8515307 -0.1265290 1.1879416
-0.4949215 -0.2100018 1.0818416
-0.8538493 -0.0965137 1.2108967
-0.8601140 -0.0591184 1.1965821
-0.8441132 -0.0731330 1.1905949
-0.8169909 -0.0242126 1.1965402
-0.6046672 0.0503772 1.1977004
-0.8257433 -0.1814960 1.1863225
-0.8515720 -0.2375819 1.1813892
-0.9389496 -0.1655875 1.1732200
-0.9975194 -0.2724543 1.2968147
-0.9968638 -0.2608486 1.2023729
-0.9601488 -0.1715813 1.1645218
-0.5029573 -0.1949314 1.0981187
-0.8452169 -0.0950104 1.1895294
-0.8418885 -0.1694180 1.1824424
-0.8278869 -0.1410392 1.1833476
-0.8458132 -0.1233590 1.1892039
-0.8835411 -0.0040719 1.2676135
-0.8486229 -0.2352397 1.1839921
-0.9254846 -0.1248404 1.2009486
-0.8141400 -0.0894927 1.1861712
-1.1736594 -0.1685608 1.1875601
-1.1833087 -0.2959400 1.1909292
-0.8768748 -0.1394991 1.1885620
-0.8244544 -0.1769740 1.1889744
-0.0818341 -0.2375420 1.1585974
0.1260205 0.0993074 1.4781727
-0.0453020 0.0548838 1.0388572
-0.0868795 0.0958883 1.1174486
-0.0518001 0.0593779 1.0572088
0.0010162 0.3535956 1.4903693
0.5319349 0.1042762 1.1720688
0.5374840 0.0860216 1.1696335
-0.8652173 -0.1713090 1.1827984
-0.7794021 -0.1192559 1.1773509
-0.8643514 -0.1762614 1.1844517
-0.9157642 -0.1648472 1.1942337
-0.8116578 -0.0795389 1.1873224
-0.8081223 -0.0372739 1.1783344
-0.7962220 -0.1960658 1.1702033
-0.8765897 -0.1738801 1.1879208
-0.7683851 -0.2501307 1.1636375
-0.8317031 -0.1988025 1.1795796
-0.7667807 0.0452768 1.1736726
-0.8628668 0.0381559 1.1500809
-0.9701772 0.0365756 1.1875896
-1.0391912 0.0299970 1.1743045
-0.8130249 0.0464693 1.1604592
-1.0115634 0.0330725 1.1503385
-1.0198129 0.0407378 1.1558260
-1.0499679 0.0347123 1.1835041
-0.9585818 0.0214372 1.1613795
-0.7362242 0.5429720 1.8196824
-0.9400371 0.0432291 1.1934601
-0.8692970 0.0381200 1.1647196
-0.8190567 0.0417193 1.1414557
-0.9195442 0.0420962 1.1528990
-1.1809930 -0.2942688 1.1849020
-0.9030337 0.0339520 1.1578114
-0.7847742 0.0515199 1.1214699
-1.0592556 0.0314471 1.1593612
-0.9011356 0.0338414 1.1366134
-1.1068194 0.0282919 1.1758158
-0.6939039 0.0693447 1.1412219
-0.9613208 0.0572060 1.2106243
-0.8532574 0.0426513 1.1925802
-0.8832865 0.0428604 1.1754395
-0.8610090 0.0366645 1.1324073
-1.0254573 0.0301963 1.1721917
-1.0428705 0.0275690 1.1786716
-1.1980034 0.0902023 1.2363179
-0.9831657 0.0359805 1.1478820
-1.1389230 0.0445223 1.1855218
-0.9836489 0.0368933 1.1504560
-1.1985260 0.0902539 1.2370780
-1.1234610 0.0392523 1.1789910
-1.0585527 0.0304148 1.1820443
-1.1362927 0.0342023 1.1816608
-1.0633638 0.0344580 1.1869868
-1.1870598 -0.2858623 1.1823064
-1.0642346 0.0215187 1.1587023
-1.0746955 0.0331891 1.1895683
-0.8547704 -0.4646435 1.1772568
-0.9617850 0.0366265 1.1579851
-1.0565268 0.0330251 1.1752245
-0.8919283 0.0448203 1.1392004
-1.2412997 0.0901853 1.2359762
-1.1230768 0.0640850 1.1828123
-0.8849059 0.0588071 1.1434163
-0.8493727 0.0381174 1.1321554
-1.0249147 0.0409715 1.1564859
-1.2423205 0.0910707 1.2374845
-1.0771455 0.0493407 1.1878830
-0.9274406 0.0253474 1.1479548
-1.2136984 0.0372822 1.2470509
-0.8476758 0.0400927 1.1513704
-0.8895221 0.0323977 1.1600617
-1.2368319 0.0288823 1.2369176
-1.0214957 0.0301906 1.1870741
-0.9505449 0.0362338 1.1556488
-0.9975844 0.0501460 1.1573250
-0.9033408 0.0383739 1.1427400
-1.0607247 0.0613477 1.1672988
-1.1062219 0.0499516 1.1675954
-1.0223038 0.0398546 1.1869501
-1.0720825 0.0387620 1.1720830
-1.1284301 0.0410419 1.1832745
-1.0879827 0.0232531 1.1663158
-1.0456070 0.0444086 1.1556783
-1.0512546 0.0339574 1.1758516
-1.1100720 0.0522077 1.1792163
-0.9910074 0.0393080 1.1577797
-1.1335982 0.0474393 1.1718538
-1.0569310 0.0311770 1.1574497
-0.7855771 0.0136381 1.0651249
-0.9807747 0.0350513 1.1719117
-0.7319475 0.1036948 1.1845527
-1.0360204 0.0531413 1.2206119
-0.8679432 0.0558113 1.1355515
-1.0843502 0.0312473 1.1756778
-0.9972953 0.0359085 1.1769738
-0.8868010 -0.4576374 1.1736877
-1.0156131 0.0528047 1.2158267
-0.9633711 -0.1610880 1.2049977
-0.9634117 0.0518938 1.1521417
-0.8428866 0.0563234 1.1398998
-0.8595961 -0.4582805 1.1685133
-0.9596912 0.0383433 1.1543592
-0.9783014 0.0292505 1.1735556
-1.1724546 0.0533626 1.2000198
-1.0390557 0.0305195 1.1613235
-1.0996809 0.0390684 1.1853652
-0.8430466 0.0372350 1.1591977
-0.9524712 0.0301377 1.1465695
-1.1956887 0.0445879 1.2412419
-1.1190418 0.0555874 1.1685020
-1.1208913 0.0602559 1.1749760
-1.0896051 0.0356729 1.1916325
-0.8884051 0.0416991 1.1607238
-0.8428825 -0.2202076 1.1784285
-0.9282797 0.0387852 1.1461788
-0.9546638 0.0508163 1.1489409
-0.8476514 -0.0106631 1.1986893
-0.9518267 0.0340362 1.1526569
-0.9039144 0.0587482 1.1412700
-0.8397244 0.0666456 1.1303067
-0.9264629 0.0507792 1.1444418
-0.8243762 -0.0020932 1.1932967
-0.9315580 0.0458406 1.1402314
-0.7673425 0.0259747 1.1718938
-1.1005250 0.0393287 1.1670643
-0.8611228 0.0524698 1.1298962
-1.1323619 0.0687097 1.1713003
-1.0660659 0.0756595 1.1742456
-1.2375950 0.0334524 1.2418926
-0.9866405 0.0356637 1.1516216
-1.2090548 0.0304578 1.2349718
-0.9757590 0.0405808 1.1991855
-1.0917610 0.0679174 1.1662073
-1.0643568 0.0389768 1.1603533
-1.0278262 0.0327279 1.1773059
-1.2678574 0.0544096 1.2373526
-1.2730421 0.0574065 1.2450110
-0.9953237 0.0694647 1.1515410
-0.7374646 0.0371535 1.0719293
-0.7232633 0.0544999 1.1087261
-1.0792507 0.0826377 1.1748611
-0.9479301 0.0784534 1.1566738
-1.2021167 0.0807776 1.2476858
-1.1159054 0.0496029 1.1815952
-1.3304946 -0.1787402 1.2774152
-0.9335797 0.0332646 1.1398009
-0.8838972 -0.4619552 1.1800668
-1.3721967 -0.1686585 1.3496306
-1.2856927 0.0923231 1.2486140
-1.1072854 0.0357577 1.1691623
-0.8155633 0.0388734 1.1517217
-1.0057254 0.0460634 1.1518056
-0.9715586 0.0453593 1.1792195
-1.0091665 0.1283830 1.4061420
-1.0127938 0.0310985 1.1914253
-0.7591242 -0.2593019 1.1622629
-0.8974913 0.0375337 1.1760894
-0.9546158 0.0432712 1.2044547
-0.8470975 -0.1757106 1.1896318
-0.9584385 0.0325513 1.1858325
-1.1886483 -0.2648093 1.1885071
-0.9266120 -0.1343413 1.2002565
-0.0651939 0.0670703 1.0402231
0.0008517 0.0787672 1.0335525
-0.0853158 -0.2386184 1.1678005
-0.0608471 0.0632211 1.0416688
0.0049940 0.0708772 1.0215652
-0.1583750 -0.4503518 1.1469173
-0.1208414 -0.4182129 1.0798146
-0.0532444 0.0763025 1.0208980
-0.0571727 0.0703026 1.0346705
-0.0638546 0.1354831 1.1450375
-0.0520784 0.0755535 1.0181769
-0.0660610 0.1708406 1.1555774
-0.0275398 0.1748509 1.0684270
-0.0571933 0.0783646 1.0187637
0.5257922 0.0673082 1.1609311
-0.0636898 0.0810696 1.0188476
-0.0588289 0.0529796 1.0579276
-0.0765424 0.0973995 1.0156798
-0.0723304 0.0854086 1.0047661
-0.1253888 0.0258101 1.0840242
-0.0514242 0.0842254 1.1146084
0.4696217 0.3682791 1.2080986
-0.0594638 0.0783789 1.0182019
-0.0713224 0.0855784 1.0202733
-0.0718772 0.0846258 1.0187829
-0.0087286 0.0574446 1.0282608
-0.0501839 0.0779663 1.0142919
0.5605135 0.0795352 1.1401196
-0.0525868 0.0804235 1.0186626
-0.8848645 -0.1024216 1.1965013
-0.8532047 -0.1051401 1.1895247
-0.8667855 -0.1334475 1.1896213
-0.9073957 0.1122684 1.1581841
-1.0268437 0.0698153 1.1626198
-1.3393743 -0.0132621 1.2240143
-1.2038296 0.0807272 1.2450347
-0.8897510 0.0468587 1.1370748
-0.8437575 0.0652541 1.1902251
-0.9314471 0.0388953 1.1480097
-0.9442580 0.0686999 1.1472977
-1.1355505 0.0629994 1.1793768
-1.0328841 0.1097656 1.1821684
-0.7089751 0.1167449 1.1285045
-0.0087579 0.0599319 1.0244480
-0.0861272 0.1014446 1.0335317
0.1226334 0.1040854 1.4779239
-0.1065777 -0.4403130 1.1279018
-0.0765451 0.0908394 1.0186260
-0.0433487 0.1180976 1.1019417
0.4701689 0.3676362 1.2055364
0.0247301 0.0962330 0.9955452
-0.0801197 0.0953692 1.0171344
-0.0390695 0.1087783 1.0958515
-0.0713282 0.1202168 1.1597967
-0.0234729 0.1657593 1.0579479
-0.0733979 0.0859156 1.0124526
-0.0604889 0.0810584 1.0179904
0.0199005 0.1108530 1.0119869
-0.1111214 -0.4440899 1.1355329
-0.0815800 0.1266775 1.0460285
-0.0344726 0.0798303 1.0147340
0.0259483 0.1016365 1.0176736
-0.0665849 -0.0204447 1.1421543
0.0073188 0.1061865 1.0052156
-0.0906765 0.1543880 1.0681614
-0.0902475 0.1536842 1.0618978
-0.0720583 0.0842549 1.0162079
-0.0520891 0.0903120 1.0024781
-0.0299856 0.0869149 0.9956780
-0.0607057 -0.0208354 1.1265054
-0.0852557 0.1300449 1.0514449
0.0257127 0.1011773 1.0188576
-0.0793502 0.0993667 1.0106487
0.0185190 0.1170033 1.0175737
-0.0403531 0.0582666 1.0175363
0.5381712 0.0811035 1.1555315
-0.0070672 0.0561030 1.0386342
0.0037003 0.0412957 1.0251244
-0.0588542 0.1591720 1.1361098
-0.0364992 0.0847802 0.9935161
-0.0718982 -0.0125183 1.1507614
0.5351550 0.0870640 1.1707752
0.5675473 0.1039843 1.2069075
-0.0072932 0.0516205 1.0220791
-0.0146366 0.0634091 1.0671819
0.5224130 0.1039537 1.1748720
-0.0644793 0.0815235 1.0197375
0.5634564 0.0810880 1.1433094
-0.0066768 0.0545216 1.0530771
0.5220789 0.1013479 1.1745738
-0.0018755 0.0933615 1.0112170
-1.2874922 0.0928671 1.2530872
-1.2852622 0.0901106 1.2480030
-1.1893317 0.0673305 1.2054493
-0.7804041 -0.2527531 1.1317664
-1.1596597 0.0995598 1.1995963
-0.9873322 0.0369422 1.1559551
-1.1293063 0.0782178 1.1812012
-1.2683179 0.0543927 1.2416296
-0.8921409 0.0448779 1.1836859
-0.8532311 -0.0184400 1.2153628
-0.6302582 -0.4160753 1.1003536
-0.9618438 0.0354564 1.1476454
-0.6784577 0.0533676 1.1162490
-0.6419944 -0.4077901 1.0885839
-1.0347658 0.0866491 1.1759870
-1.3207917 0.0223788 1.2938306
-1.1150749 0.0621379 1.1850841
-1.1971116 0.0493829 1.2483318
-0.8940214 0.0865147 1.1511955
-1.3142903 0.0288805 1.2868240
-1.0379190 0.0509063 1.1640035
-0.9458280 0.0171471 1.1336535
-1.1841929 0.0727484 1.2198827
-0.8034326 0.0436206 1.1412582
-0.8358845 0.0358719 1.1260954
-0.8142041 -0.0447640 1.1913605
-1.0567147 0.0308784 1.1712111
-0.7279736 0.0717163 1.1154388
-0.7164147 0.0736723 1.1123331
-0.9764109 0.1138694 1.1723176
-0.9656696 0.0822230 1.1584734
-0.9781640 0.0820390 1.1592137
-0.8620083 0.0370384 1.1334153
-0.7739154 0.1075470 1.1358001
-0.8512161 0.0694629 1.1344332
-1.1075190 0.0996143 1.1835731
-1.3645649 -0.2994253 1.2181038
-1.3246329 -0.2842985 1.1686670
-1.3645865 -0.1739898 1.2373643
-1.2487481 0.0939095 1.2464508
-1.1007186 0.0481361 1.1781693
-0.9544560 0.0385409 1.1535053
-1.3338665 -0.0160614 1.2172166
-1.2853642 -0.0022030 1.2259331
-1.3699213 -0.2997115 1.2263746
-1.0197082 0.0822742 1.1648715
-1.3367748 -0.0154109 1.2197371
-1.0073296 0.0751221 1.1544135
-1.2917092 0.0597606 1.2621300
-0.7554405 0.0862296 1.1273949
-0.7647958 0.0406336 1.2053920
-1.1155471 0.0725113 1.1844480
-0.9968278 0.0490436 1.1536009
-0.9615100 -0.1542628 1.2099999
-1.0503740 0.0620284 1.1598871
-0.9704673 0.0786723 1.1644707
-1.0380791 0.1169207 1.1832842
-1.3723459 -0.1486923 1.2496610
-1.3526660 -0.4367625 1.1732526
-1.3778790 -0.1719452 1.2574003
-1.3512940 -0.1522861 1.2172278
-1.2702719 0.0551361 1.2412330
-1.1728435 -0.1709735 1.1851581
-1.1185181 0.1083827 1.1806396
-0.8983047 0.0864559 1.1476504
-0.6998327 0.1725792 1.1318225
-1.0029618 0.0748354 1.1704267
-1.1714878 -0.0134098 1.1970608
-0.9875119 0.0349302 1.1508209
-0.6600804 0.0957735 1.1064366
-0.6185551 0.1739296 1.1103534
-1.1746614 -0.1475522 1.1990221
-0.8839172 0.0761025 1.1391808
-0.9309852 0.0454494 1.1438930
-0.9142171 0.1029580 1.1579131
-0.8138054 0.0779725 1.1258035
-0.3887297 0.0993653 1.1120297
-0.3509817 0.0952446 1.0923249
-0.3874400 0.0954989 1.1035632
-0.9598071 0.0980324 1.1506772
-1.0502476 0.0300223 1.1283381
-0.6609446 0.1775800 1.1169542
-0.9856713 0.0761664 1.1626074
-1.0125909 0.0578572 1.1583036
-0.7632095 0.1070928 1.1324742
-1.0436261 0.1566598 1.1866392
-0.8535399 -0.1322906 1.1853514
-1.1245489 0.1245592 1.1825193
-1.0405267 0.1816032 1.1909593
-0.6996703 0.1622025 1.1319472
-0.8954895 0.1118522 1.1558075
-1.0731221 0.0814504 1.2656057
-0.9947312 0.0318189 1.1692585
-0.9870648 0.0385489 1.1861311
-0.8174251 0.0330526 1.1544516
-0.9295096 0.0311046 1.1652014
-0.8877094 0.0391631 1.1707406
-1.0138377 0.0307193 1.1775794
-0.9128177 0.0397373 1.1930528
-0.8934920 0.0527620 1.2027603
-1.0223985 0.0327790 1.1759088
-0.8953424 0.0348034 1.1812105
-0.8606770 -0.0211423 1.1975061
-0.9463315 0.0379801 1.1997235
-0.8031175 0.0427490 1.1696533
-1.0882249 0.0345539 1.1898656
-0.7937129 0.1200955 1.2780656
-1.1637001 -0.0154615 1.1870822
-0.9701674 0.0404058 1.1947649
-0.8757859 0.0303914 1.1545514
-0.8362848 -0.0083480 1.1953005
-0.8398685 0.0351081 1.1275105
-0.6601748 0.1302283 1.1130617
-0.3310508 -0.4945092 0.9688209
-0.6977397 0.1290197 1.1314960
-0.6581041 0.0450650 1.0956229
0.0019397 0.0724443 1.0249696
-0.6339829 0.1182156 1.1055698
-0.4307817 -0.1650084 1.0439072
-0.7542046 0.0437419 1.1622444
-0.9752313 0.0618506 1.1631982
-1.1073598 0.0315946 1.1650525
-0.6154933 0.0385236 1.1715268
-1.0600239 0.0304229 1.1580952
-0.7431955 0.0364404 1.1117818
-0.9000983 0.0387253 1.1395988
-1.0864904 0.0314888 1.1621652
-1.0852648 0.0368220 1.1714028
-1.1971779 0.0885070 1.2339381
-1.0095562 0.0337327 1.1675136
-0.8849913 -0.4610891 1.1791716
-1.0376374 0.0061238 1.1198275
-1.0847243 0.0352175 1.1700376
-1.1339368 0.0610581 1.1758161
-0.6943699 0.0419760 1.1141067
-0.9896080 0.0299907 1.2209074
-0.8753287 -0.4778709 1.2048727
-0.9956920 0.0324684 1.1705432
-1.0066811 0.0575673 1.1613020
-0.6614951 0.0444769 1.1415734
-0.9228188 0.0355717 1.1604400
-0.6770939 0.0544019 1.1177171
-1.2380124 0.0920832 1.2435127
-0.9733534 0.0301513 1.1637284
-0.7384793 0.0364943 1.1110430
-0.8610142 0.0318182 1.1471246
-0.8667161 0.0442465 1.1563762
-1.0788890 0.0331179 1.1603914
-1.1055992 0.1568053 1.1741565
-1.2822150 0.0046792 1.1338668
-0.8629295 0.1963973 1.1594278
-0.6289822 -0.4226992 1.1149775
-0.6866276 0.1816233 1.1285129
-0.6668651 0.1586920 1.1136885
-0.6743273 0.1532059 1.1205119
-1.1532074 -0.0965391 0.9166121
-0.5915557 -0.1414271 1.0826640
-1.0732422 -0.0671261 0.8778992
-0.5926173 -0.2969609 1.0631119
-0.8515142 0.0729602 1.1322106
-0.9233844 0.1098394 1.1620824
-1.0342028 0.1143450 1.1808811
-0.8262640 0.1098835 1.1431370
-0.6705708 0.1243116 1.1242635
-1.1089929 0.1152447 1.1775893
-1.2202737 -0.2830329 1.1021198
-1.3301253 -0.0166652 1.2129973
-0.5971981 -0.4055644 1.0426828
-1.0436609 0.1554422 1.1856196
-1.1291500 0.1551165 1.2033681
-0.8855065 0.0375559 1.1386402
-1.3641471 -0.0330379 1.2503395
-1.0760934 0.1886380 1.1750369
-1.0792161 0.0890019 1.1831353
-0.9412313 0.0333625 1.1551980
-1.0604546 0.0305305 1.1584452
-1.0793916 0.0343576 1.1628175
-1.1705124 -0.1729107 1.1770186
-0.9639618 0.0339025 1.1473695
-1.2045059 0.0341209 1.2359711
-1.0317966 0.0336053 1.1627108
-1.1209564 0.0302085 1.1748452
-0.9488443 0.0282620 1.1811823
-0.9118703 0.0435007 1.1814470
-0.9550840 0.0325169 1.1567312
-0.8102615 -0.0184376 1.1914103
-0.9578655 -0.1555406 1.2075212
-1.0310706 0.0389116 1.2004436
-0.8023001 0.0364634 1.1428188
-0.8130353 -0.0962505 1.1848224
-1.1350350 0.0371657 1.1730357
-1.1345719 0.0298128 1.1723379
-1.1932609 0.0747673 1.2350863
-1.0608869 0.0591036 1.2166764
-0.9206396 0.0395093 1.2033261
-1.1160905 0.0308417 1.1819042
-0.8194081 -0.1618527 1.1851766
-1.3715537 -0.4473362 1.2019140
-1.3658990 -0.2983327 1.2202590
-0.6694436 0.1574024 1.1115452
-1.3742167 -0.3003883 1.2321653
-1.1332175 0.1122955 1.1858659
-0.8828231 -0.4345659 1.1355032
-1.3901656 -0.1723500 1.2769490
-1.0856657 0.0606655 1.1765029
-0.9961371 -0.2689554 1.2720816
-1.2179682 -0.0396546 1.0286291
-1.0469187 0.1505709 1.1813213
-1.1612166 -0.0849232 0.9325631
-0.6961719 0.1750937 1.1314523
-0.8802407 -0.4417439 1.1517307
-1.2626824 -0.0189441 1.1784744
-0.6667830 0.1628827 1.1175399
-1.1655782 0.0997072 1.2069474
-1.1738733 -0.0469100 1.2172798
-0.7886485 -0.1401720 1.1396846
-1.0778078 0.0850224 1.1769406
-1.0996681 0.1003628 1.1926694
-1.1227995 0.1100895 1.1876003
-1.0792835 0.1232317 1.1762465
-1.0813910 0.1127749 1.1787283
-1.1292491 0.0822615 1.1866282
-0.9010455 -0.4456232 1.1639553
-0.7473451 0.0799773 1.1171190
-0.6696129 0.1017970 1.1073301
-0.6677202 0.1145196 1.1100656
-0.6661602 0.1173181 1.1127779
-0.8989099 0.0631229 1.1416757
-1.2113156 0.0384643 1.2505031
-0.8978395 0.0431404 1.1821609
-1.3264780 0.0265845 1.3040869
-1.1631635 -0.0504100 1.1882997
-1.1742831 -0.1770880 1.1779933
-0.7683995 0.0367803 1.1172234
-0.8913206 0.0376252 1.1413126
-1.2483001 0.0329960 1.2439641
-1.0828191 0.1392590 1.1842462
-0.4947304 -0.1715201 1.0837184
-0.9776780 0.0717769 1.1754785
-0.9194209 0.0355202 1.1941649
-1.2704835 -0.0085608 1.2050838
-0.8032703 0.1253376 1.0237429
-0.8763897 -0.2294182 1.1920534
-1.1772100 -0.0451317 1.2245952
-0.8682188 0.0425787 1.1013271
-0.9838902 0.0258750 1.2183239
-1.2940539 0.0167552 1.1564029
-1.2119229 0.0339170 1.2409194
-0.8879029 -0.4307614 1.1272073
-1.1226635 0.1414155 1.1839020
-1.2494805 0.0337630 1.2459608
-0.9232509 0.1128487 1.1671662
-0.1012532 0.0791425 1.0917019
-0.3465680 -0.4910986 0.9586330
-0.7216268 0.0909094 1.1205277
-0.4479497 0.0368799 0.7946886
-0.9953021 0.1266124 1.3685342
-0.0016804 0.0721940 1.0261350
-0.8239122 -0.0066060 1.2020773
-0.2740024 -0.2728858 1.0103492
-0.7519453 0.1083527 1.1222736
-0.1967322 -0.5025950 1.1023530
-0.0054596 0.0839079 1.0212491
-0.6442790 0.1329144 1.1130898
-0.8698086 0.1856746 1.1822435
-0.8708915 0.1172983 1.0846882
-1.1645163 0.0946568 1.2002069
-1.1400496 0.0405099 1.1931359
-1.0175951 0.1127604 1.1760522
-0.6472511 0.0816135 1.1025963
-1.1784096 0.0803326 1.2112802
-0.8759035 0.0897551 1.1484809
-1.1711261 -0.2878059 1.1561894
-0.2676169 -0.1591035 1.0910422
-0.6937201 0.1797186 1.1329054
-0.4199220 0.0892846 1.0714335
-1.1591798 -0.2749504 1.1588290
-1.1339902 -0.2749220 1.1170437
-1.1242958 0.1424507 1.1859924
-0.7812213 0.0480832 1.1199769
-0.9026425 -0.1619014 1.1689224
-0.2806579 -0.1632868 1.0756595
-0.8665152 0.0362852 1.1340123
-0.8518056 0.0728773 1.1394618
-0.8777157 -0.4221773 1.1647160
-0.6562327 0.0734118 1.1019216
-0.7123880 0.0458435 1.1069804
-1.0659827 0.1382968 1.1869061
-0.9262536 -0.1657012 1.2271944
-0.7697143 0.0393669 1.1215832
-0.8693379 0.0274918 1.2025672
-0.6540398 0.0399630 1.0684210
-0.3164568 -0.1744669 1.0373725
-1.0322553 0.1084692 1.1800823
-0.8496926 0.0708711 1.1352352
-0.3525382 -0.4816531 0.9399363
-1.1628501 0.0988620 1.2029181
-1.1788096 0.0374021 1.2116821
-0.8498819 0.0467896 1.1304185
-1.0792089 0.0912735 1.1842794
-0.6061330 0.1142725 1.0793372
-0.8799717 0.0725276 1.1336808
-1.1660671 0.0725579 1.1922014
-0.9690722 0.0664610 1.0152498
-1.0750033 0.1051476 1.0842268
-0.7231142 0.0148952 0.7642511
0.4118296 0.3254746 1.1663164
0.5274647 0.3961440 1.3126217
-0.0572705 0.2164908 1.0011350
-0.3409990 -0.4504387 0.8295801
-0.3301352 -0.5060077 1.0117759
0.3290029 -0.2653072 1.3056096
-0.7591663 0.0843164 1.0793463
-0.4388816 -0.1417656 1.0543584
-0.5469976 0.0726859 0.6425886
-0.8212906 -0.0214751 1.2019386
-0.9931957 0.0443402 1.1433142
-0.4212837 0.0366867 0.5742959
-0.5234267 0.1178705 0.6259467
-0.4210163 0.0280227 0.5629577
-0.4224328 0.0399832 0.5789906
-0.3653074 0.0458839 0.5074119
-0.0626050 0.2151836 1.0179847
-0.4487311 -0.4161716 1.1911432
-0.3801451 0.0504971 0.5759742
-0.9638913 0.0524238 1.1340396
-0.0778053 0.0176873 0.9133373
-0.3120160 0.0494565 0.5735086
-0.1326202 0.1408853 0.9394648
-0.3545922 -0.4442371 0.8344417
-0.4173756 0.0262813 0.5437875
-0.5188155 0.1172083 0.5919269
-0.4250266 0.0321586 0.5300496
-0.7033851 0.1319703 1.1124201
-0.4882907 0.1479039 0.7400268
-0.9920240 0.0441618 0.9005106
-0.4280478 0.0866774 1.0551975
-1.2893589 0.0921317 1.2567861
-1.1601348 0.0086314 1.1506613
-0.8967632 -0.4374623 1.1570320
-0.9399877 0.1024750 1.1578231
-0.9324118 0.0461867 1.1461419
-0.8803694 -0.1815915 1.1914022
-0.8985950 -0.4390622 1.1523688
-0.4293825 0.0454496 1.1343940
-0.0452538 0.2282935 1.0468833
-0.7241089 0.0151399 0.7665230
-1.2096101 0.0303564 1.2358339
0.3464426 -0.0778710 1.3706456
-0.0531969 0.1750338 1.0111002
-0.2440337 0.1456214 1.0684012
-0.5045638 0.0395290 0.7910742
-1.1838574 0.0821904 1.2195306
-0.5558993 0.0460890 0.8280741
-0.7697515 0.0943646 0.7338864
-0.5174870 0.1642063 0.7527264
-0.5449766 0.0732577 0.6436780
-0.3456827 0.1025546 0.7008550
-0.4522933 0.0494421 0.8433673
