1.4680624 -3.7896481 6.8524303
0.0467524 -2.3246539 6.1973753
-0.2011858 -2.8216074 6.1153083
6.7704172 -1.5885733 8.5468483
0.2041212 -2.1771159 5.9992590
4.5278840 -1.1946824 7.7386427
1.8513578 -1.2746137 4.2783957
13.8137751 1.2278606 2.7023282
16.0547962 1.3317003 0.5069177
10.2710514 -2.1302083 8.2679920
8.1183577 -2.9676600 5.1417298
8.3277540 -3.8901854 6.5186405
6.6267362 -1.5218441 3.6623898
7.9223061 -1.0575277 5.9426579
10.3573742 -1.4216969 9.5339289
10.1751614 0.8026555 4.6275420
6.4108882 -1.4243664 4.1753316
6.7468247 -1.4403837 3.5720608
10.0426826 0.7952812 4.5225930
8.4204226 -3.0023584 5.1635575
9.9742794 0.7510284 4.5294161
12.0211630 0.4188069 3.2583718
8.9747486 -0.1586417 5.7509398
10.1799202 0.8731781 4.5151033
8.0400267 -2.1259065 5.9792457
14.2085638 1.9355820 2.0442436
8.1799326 -1.4324582 6.7599134
8.5261316 -1.4702601 5.2160273
8.9858093 -3.0071242 4.8239388
8.5530205 -1.2142987 5.2583408
8.4289932 -3.7300968 6.2026572
6.2136836 -1.5156113 4.5344367
6.3997631 -1.4957976 4.1062026
8.6948156 0.4493155 5.3761220
13.3613997 -2.0733881 1.6731311
7.9189200 -3.1077247 4.9972138
10.2773819 0.3092863 4.5595818
8.9945984 0.4483486 5.3283544
10.1268845 0.8532543 4.5151892
6.6790590 -1.3656512 4.0122657
8.7378769 0.7192895 5.3211918
9.2538977 -2.7260044 4.3712463
9.0581799 -0.0682051 5.4115396
9.0961418 -0.8189785 5.6532845
8.9710875 -2.6284306 4.3758211
6.3428102 -1.4097816 4.2412252
12.8398209 -0.6254795 -1.6161841
10.1398125 -0.3847876 4.5524192
7.8334713 -1.1397464 6.2403636
10.5060005 -1.2628994 3.7994931
12.2267904 -1.8478256 2.2072535
10.2096157 1.4599961 4.1423454
8.8000031 0.7672192 5.3071365
9.2345343 -0.4201675 2.0113351
6.9457383 -1.3198490 3.9546938
7.7166376 -0.9505014 3.1532347
8.0675936 -2.1606669 6.0558710
8.7228079 0.4321923 5.3343387
10.4007759 -2.2744527 3.3327889
10.1116095 -1.2141900 3.8556368
6.3685288 -1.3891660 4.2357707
8.8281021 -2.6843994 4.9673491
7.9849386 -1.9734648 5.5166411
8.9141388 -0.1369927 6.1082530
8.3953781 -2.3415773 5.0782866
6.0502553 -1.4267000 4.3494253
6.0149837 -1.3697362 4.3240662
6.2596488 -1.4751471 4.3068709
9.1916313 -2.6113594 4.3153272
10.1919718 0.7985815 4.6468339
9.1594362 -2.8200734 4.3009648
7.8576732 -1.7192187 5.7757587
9.1877384 -2.6689556 4.3630624
9.2426348 -1.3313938 7.9880853
8.3935413 -2.2073421 9.4532576
7.6820793 0.3843182 4.5601940
8.6016922 -3.3050437 8.6675482
8.2380304 0.8429335 4.9053111
8.2738409 0.8664307 4.9016843
7.6775436 0.3733583 4.5609803
8.0560722 -2.9854529 5.2292395
7.9111128 -1.9068521 5.4421830
8.2935181 -4.4106870 9.4042339
9.0979481 -0.2235767 7.7161980
9.2006454 -0.8328235 8.8826227
7.9177022 -1.9054794 5.4418097
9.2109060 -1.3847290 7.7001781
7.9248552 -1.9075545 5.4456410
8.8459883 -3.2476923 7.2275710
7.8715224 -1.9384774 5.4564238
8.1534615 -2.5182366 5.9116354
8.5719194 -0.5370530 9.0076637
8.9506350 -0.1713438 8.5514135
7.9186525 -1.6590183 10.7885962
8.2785759 -1.4064043 6.8085890
8.6807556 -3.2437093 9.2598257
13.1671705 -1.6635152 9.3638840
9.8581810 -3.4861071 8.5285463
12.7655172 -1.8115562 9.7793903
7.8421221 -2.4644709 5.7161512
9.3883305 -2.8392777 4.5829115
7.9811039 -1.9699332 5.5261216
8.6946554 0.1201993 5.4655852
9.9282875 1.1042964 4.6956849
10.4931717 -2.6112068 7.9826112
8.9723740 0.3567446 5.4556212
8.1328497 -2.3145006 5.2835102
7.9952393 -0.3801882 6.2444205
7.7976203 -1.1522740 6.2269344
8.7752476 -0.4114556 9.1728125
8.5673780 -2.5957630 9.4976683
12.4042015 -2.0374458 7.2943516
10.5354080 -2.4063144 8.0134945
9.3679018 -4.7204499 9.1709528
9.3797169 -0.6854503 8.4624910
8.9760399 0.3924727 5.5389614
10.0829220 -1.3360243 8.8428392
7.9529209 -1.6957369 5.8380489
9.3853846 -3.9467349 8.1950455
9.8145971 -0.5228769 9.3120165
8.1824455 -1.7841216 9.3978634
8.9286375 -3.2668927 8.9523640
8.7264957 -3.1525290 9.2509813
8.6406050 -4.6896343 8.8412008
7.9903374 -3.6987207 6.9813066
7.9258995 -1.9162070 5.4567885
8.8734779 0.2858095 5.4614329
9.2628899 -1.3000089 8.2399664
9.0022230 0.5402856 5.6960568
8.0396538 -1.9602431 5.5537090
8.0802279 -0.9753407 6.2436891
7.8935328 0.0864572 6.1393032
8.5778513 0.7073992 5.3304820
8.5703220 -3.1715052 9.3506441
10.1833248 -1.2106442 3.8510170
7.7971091 -0.0459230 6.1732950
7.9378853 -1.8510824 6.1683578
9.0121088 0.5622588 5.7157841
8.7312899 -0.2405205 8.3711567
9.3372154 -1.4154977 7.4610162
10.4172268 -3.5559857 6.0204825
7.9007545 -0.5244810 7.0018668
8.1882563 0.6106933 4.8717942
7.8038387 -0.5000320 6.9161410
8.1416302 0.5788745 4.8775496
10.0064354 -0.4843249 9.6438913
8.2613096 -3.6392260 6.6535039
8.9203806 -3.8831561 7.3055048
8.2621355 -1.4044385 6.7866130
9.4281664 -4.7441239 9.2215900
8.5121164 -3.7397754 6.8252463
9.6779337 -2.8879457 8.5457964
10.1731319 -2.2014711 12.2546425
8.5953579 -2.9028444 9.4950876
13.1249943 -1.6753343 9.3397903
8.1662169 -1.7799932 9.3989487
12.0417948 0.4657650 3.2666137
8.9085264 0.7781789 3.6763473
9.8246431 -0.8166541 9.6638594
9.2778301 -2.4795206 4.1808295
14.5537500 -1.8010311 0.6035745
11.9243650 -2.1627660 10.7956457
9.1690264 1.0738943 4.0171680
8.8492908 -0.2663001 7.6855702
15.8828478 2.6436961 0.9715177
9.3711939 1.0822707 3.5677497
8.6204624 0.5621901 5.4503551
8.0111570 -2.1978109 5.9443831
12.1962500 -2.1220934 10.9900723
8.5481272 -3.4778366 6.4313993
8.0921745 -2.5254741 5.9141393
9.2175922 -1.4200741 7.6850038
8.6863155 -0.1909427 8.3485899
8.9785881 -0.4138360 8.6999626
10.0986185 0.8936672 4.9115481
7.9626493 -2.3656578 5.3135409
8.2258749 0.8465465 4.5549226
9.3322392 -3.9505770 8.1568604
8.5462894 -2.5822501 9.4828968
8.5140676 1.0340728 4.7396917
9.2215948 -1.9612201 4.6048112
10.5937033 -2.2852957 3.2101777
8.3987999 -1.2579273 10.4048433
7.6780672 0.3551975 4.5686016
11.4653034 -1.9176887 2.4651699
8.4223118 -3.5787628 6.5949526
8.3239117 -0.1753873 5.5261097
9.8404198 -3.4746678 8.5109072
9.1440248 1.0791117 4.0108356
9.4811420 -0.7984591 8.2747564
7.8661733 -1.2236516 6.4540744
9.1031437 1.2839241 3.7799344
8.5222759 -3.4693058 6.4309649
8.8633652 -4.4421444 8.6337662
9.9168205 -1.3662677 8.5002203
10.6776314 -2.5847368 12.1117144
9.5406275 -2.4540303 4.0800881
9.9752808 1.1397278 4.6567340
10.5640030 -1.0809050 3.7031796
7.7074723 0.4086542 4.5449529
7.8113050 -0.4958530 6.9092813
10.1979113 1.3953711 2.8053458
9.4037714 0.7319183 3.2855668
8.0339069 -0.7398484 9.3745651
10.1226597 0.9063606 4.9005976
10.0952806 0.8950840 4.9219513
10.6183786 1.4498984 2.8313265
7.9250078 -1.6978414 9.9583874
13.3976736 -1.3887987 1.2434572
9.2572603 -1.4679530 7.6596608
12.5665016 1.4207095 2.8586113
7.9323678 0.9367907 4.4832888
8.7917852 -0.3257042 7.6564593
9.9080849 1.0877702 4.6794624
9.0220785 -1.5564612 4.6361094
9.0372992 -2.6322472 4.3748670
8.2687654 -2.8216803 4.9783878
9.2633553 -1.3782907 7.7247410
9.0099306 -1.5710052 4.6499190
8.0064411 -1.6628431 10.0649652
10.1642513 0.7884726 4.6288052
9.3241234 -1.2113631 8.4202185
9.8251400 1.1808157 4.4733467
8.3012962 0.2520308 5.4870362
9.0285254 -1.5639033 4.6419730
3.0784490 -2.5022781 10.3504190
4.4526877 -1.8243132 11.4164801
4.8604751 -3.0523601 10.2740679
3.2904384 -3.4755876 7.5903063
3.3760421 -3.4414132 7.5816836
2.7238886 -4.0828733 10.8430643
4.5191927 -1.8193616 11.3256931
4.4230685 -2.3989077 11.0162239
2.9954655 -3.3279049 7.2197528
3.8974998 -3.5382001 10.8514576
5.2877049 -2.4445777 12.9570627
3.1304405 -3.0529675 11.2628279
6.7043047 -2.5848224 11.5232725
6.5327172 -3.5458858 10.9519405
2.1163192 -2.0472586 9.3977089
2.4418397 -3.0066841 6.5349922
1.8015503 -3.1266499 10.5606031
7.3995047 -4.2885833 10.0058861
2.2929296 -1.5399630 9.7582617
4.9895916 -2.1324770 10.1480246
5.2848358 -1.7309381 8.3973026
1.5254458 -3.2384703 6.5956092
1.4952976 -1.7294838 8.7975521
0.2987339 -2.2299757 8.3717480
4.2463603 -1.3236841 9.5007563
1.7187259 -2.7421343 6.9664297
3.8038075 -5.9711070 10.6208525
2.8306351 -1.3883082 10.5860548
2.8064773 -3.2122674 6.9550385
4.2261720 -1.7366893 7.1234989
0.0217087 -1.8482636 8.5229597
0.7096581 -2.7812276 7.8118229
3.1077731 -2.1376209 10.4543715
2.6675572 -3.4451828 11.4173717
2.2222810 -2.3009472 6.6497350
6.5377827 -3.5638840 10.9804525
5.0874581 -3.9590514 11.5877829
3.8999128 -1.8529052 11.3540268
2.4384935 -3.0041525 6.5321646
1.6779660 -2.8152175 7.1667728
3.0255280 -3.3307467 7.2193274
1.9295933 -1.5541567 9.0213509
2.2271781 -2.2977459 6.6233530
2.2603641 -1.6661017 9.6318378
2.6416116 -3.5172241 7.0083208
3.1801069 -2.3629403 10.6359549
2.6226861 -3.5493126 11.4837351
6.4207478 -2.2963424 11.1554527
3.4561417 -3.6286721 7.8921442
4.9691539 -2.1512873 10.0947609
2.9690259 -3.4184272 7.1426873
4.8730469 -3.0480239 10.2859850
3.8360031 -4.6513796 9.1139669
3.4785759 -3.7555647 7.8057480
-0.0900111 -1.1172477 7.9737387
1.5461745 -1.7640676 8.6638927
0.7550901 -1.9654328 8.3847275
-0.0018185 -1.1751423 8.0498381
2.3634138 -3.1069803 6.4004908
3.4213972 -3.6795022 7.6271391
4.0829940 -1.3090011 9.6622686
3.2548816 -0.9777185 9.0785542
4.8893509 -4.2701397 8.4208832
1.0639960 -3.3132594 6.5124526
2.3674905 -3.0975983 6.3812342
0.9326383 -1.8643581 7.8859563
1.7427341 -2.4584014 7.0165453
1.7454995 -2.4566271 7.0074749
1.6040154 -2.4929500 7.0698476
5.1818337 -0.8713655 8.3956499
3.5453014 -0.9739022 8.7488346
4.4266262 -1.9698720 7.4892812
2.7389221 -1.8009269 10.1444740
0.6690100 -1.7810755 7.9673018
2.6474371 -3.4484065 6.8952379
0.9052081 -1.8633893 7.8940997
0.2613569 -2.2436602 8.4319563
3.8525984 -1.4977134 9.7385435
2.3256514 -3.1479034 6.4111314
0.7081295 -2.7915132 7.8083177
1.9795552 -1.5055102 9.2552853
1.6235827 -1.2484574 8.9560289
1.6580678 -0.7618468 9.1081429
0.7984644 -2.4744844 8.2536631
1.5578403 -1.7693019 8.7056589
5.5002437 -2.3917058 8.5870552
2.8787925 -3.6208012 10.9521894
4.5583429 -1.8199785 11.3844738
3.3007064 -1.1906663 9.1402636
3.9964967 -1.3289037 9.9164877
3.0191483 -1.3913505 10.8985090
3.4201269 -3.6813419 7.6269741
1.2579033 -1.5609614 7.6866450
1.1904969 -1.7698419 5.2205324
5.0882678 -2.1720293 8.3039293
3.0196521 -1.4347479 10.7764511
-0.2486946 -2.5738382 7.9825048
4.7067485 -1.4537514 7.7243228
3.0111794 -3.4814055 7.2956238
1.2398741 -1.5438403 7.6950192
1.4705886 -3.1029630 7.1114955
2.2792702 -1.9245999 9.5863628
5.2442436 -4.1351047 9.0318317
2.0053248 -1.8869331 9.1512623
5.8721900 -3.1372745 11.1888714
3.0182798 -4.7167091 9.2639656
3.9728632 -1.9867940 8.1295977
1.7043840 -2.4837747 5.5179248
1.4850531 -3.0919590 7.0845766
1.2861612 -0.9805995 8.6571016
-0.0771622 -1.8217436 8.7133551
1.6744813 -1.4199070 8.9043427
2.2560418 -4.4733768 8.1535101
1.0406890 -3.3669174 6.6002207
1.5756898 -3.5680320 6.9735994
-0.3709675 -1.9873260 7.9917898
1.7914225 -3.2413969 6.7177606
4.2997217 -1.8385617 7.4055738
4.1142387 -1.0582374 8.9251385
0.8913230 -1.8622580 7.9235330
1.5309050 -3.2021527 6.5554810
1.5314658 -3.2407377 6.5988698
2.5866601 -2.9952869 6.5862503
1.6700028 -2.4975193 5.5267291
4.4160566 -2.4016440 11.0576601
3.0841115 -3.0461438 11.1708145
2.6002262 -2.9911814 6.5659389
2.7368338 -2.3924048 10.0456562
3.2996001 -1.1978515 9.0922346
1.4464777 -2.0745959 8.4947138
2.3583655 -2.9733682 6.4158835
3.3958063 -3.4714828 7.6627626
4.1976166 -4.4584255 8.4358978
3.2681775 -3.4605882 7.5747609
5.5761766 -3.8070183 9.6922455
6.1428494 -5.9803667 9.3387070
0.7398435 -2.7631228 7.8442941
0.8544007 -1.9280308 8.1237488
0.4558170 -0.7558346 8.2976952
4.7153873 -1.4555622 7.7322979
2.2290750 -2.5671771 6.5059471
2.3463490 -4.4527035 8.0992489
2.7009153 -3.3403025 6.7171178
5.2574859 -1.5400494 9.5628815
3.1147373 -3.0921609 11.6554413
-0.1488700 -2.6191256 8.0569353
3.9895794 -3.8907473 8.5727482
2.8958881 -3.7050121 11.4450216
3.0586915 -3.1787910 6.9056621
2.3338892 -2.1696146 9.5717564
2.4553030 -1.0214517 10.0434256
4.2162294 -1.7017201 8.0380964
4.1049004 -4.0185957 8.8989429
1.5864199 -1.6405898 8.7848835
1.0630673 -3.3344734 6.5148182
3.9930024 -1.1402336 8.6624889
2.4029264 -2.8706861 6.4633212
2.8997729 -5.2107458 9.3516378
4.4498420 -2.2481253 8.1757393
3.0721705 -2.4773400 10.3592997
3.2903633 -3.9237499 11.9678211
2.6540546 -2.2546411 9.8734970
2.1937454 -2.5895205 6.6489716
1.5334176 -3.0535345 6.5099211
1.6177963 -1.2632695 8.9660444
-0.3740675 -1.9483383 7.8639750
2.1415083 -2.7547119 6.0953369
2.3790472 -3.1213408 6.3560424
0.4478108 -0.7538136 8.3020325
3.8445935 -1.6720904 6.8057065
2.1011631 -2.3947520 10.4223528
1.8545288 -1.2298374 9.2041340
3.8443785 -1.6758091 6.7996502
5.6048312 -4.9101553 8.7962265
2.7380807 -3.4925880 11.3240051
1.9645247 -3.6654475 7.2944655
2.7449560 -2.3937776 10.0638504
2.9623737 -5.5681696 9.9080753
4.2478857 -1.6975466 7.3666453
1.6891042 -2.4566982 7.0951228
2.1412649 -2.9072955 6.1242385
2.7959578 -1.3787793 10.5212164
2.8488476 -5.2427826 9.5133219
1.6651694 -1.7046429 8.6925430
5.2444077 -2.1284361 8.2718410
1.8970128 -3.8636148 7.6406894
8.6653566 -2.5272639 5.0352330
6.9103737 -1.3056853 3.9196558
8.5833292 -1.4408544 5.2194963
8.9237118 -0.1311030 6.1070995
13.7682981 -1.3987242 -2.5570908
8.1392527 -0.9112985 2.1335077
9.1211338 -2.8397579 4.3706851
7.9462237 -2.9312015 5.1196947
8.2246904 -0.8713664 2.0653720
13.0676661 -0.5937750 -1.8442943
11.6114683 -1.6342572 3.1804292
8.2108545 -1.6117721 5.7110367
8.8448505 -2.7393880 4.9888172
9.0016527 -0.0857548 5.4015260
7.9943113 -1.9669956 5.5321898
8.9040298 -2.7315612 4.9846053
5.8657384 -1.4346627 4.0757985
7.9662251 -1.9714417 5.5220218
8.7475929 -2.0324078 4.6578841
9.2590284 -2.7558444 4.0694528
6.0151477 -1.4155878 4.3031349
6.7359180 -1.3510202 3.9704630
7.8801923 -0.9278936 2.9282365
10.2427263 -2.3231890 3.5965650
8.6280470 0.8714705 5.2640495
7.7808208 -2.5148170 5.8153324
7.9350939 -3.1011455 4.9997258
8.0201311 -3.0645895 5.3887229
7.5706038 -1.6399632 1.8914276
6.5254951 -1.2115830 3.1100755
8.0520449 -3.1906760 5.1737933
8.0696287 -1.4218738 6.7697349
9.4589968 -1.4850512 7.3228183
14.0160027 -0.9827601 -2.3910611
10.5238438 -2.5766525 7.8721609
9.1424398 -2.8489904 4.3704119
8.9831877 -3.0160959 4.8226471
7.9644728 -2.9287729 5.6703720
5.8624496 -1.3241400 3.7452612
8.0601330 -2.7580597 5.0233827
6.6025681 -0.9108840 2.9763451
8.3609276 -2.2909474 5.2876458
5.9665656 -1.3400505 4.2587776
8.0819521 -0.9777583 2.2365646
14.5542984 -0.9987149 -0.8550356
8.5197687 -1.1796774 1.2921922
10.1466284 0.9388172 4.9212084
8.9083729 0.5303373 5.3140984
8.7852688 -2.7904651 5.0164514
10.2726917 -1.1446089 -0.0154515
8.2311735 0.5248703 5.5494838
12.9371471 -2.0244501 1.8221812
10.0608301 -1.1713375 0.1836167
7.8580084 -0.5615138 6.6970482
8.0873785 -2.3548121 5.5207171
9.0756540 -0.2176665 8.6892490
8.8593197 -3.4911230 6.3041258
8.1961040 -1.6113793 5.7043877
13.6911621 -0.5379657 -2.2369092
9.2433023 -1.3046411 8.2312679
8.5117741 -1.1961596 1.3037031
6.3236041 -1.5293193 4.6670208
7.6356926 -2.4516582 5.6225543
8.9505310 -0.1169788 5.5380430
13.1575470 -1.6815399 9.3290663
7.9765391 -3.1621680 5.5988650
7.9826880 -1.9829047 5.5578628
8.5344524 -3.3023088 6.0928912
14.2214165 -1.2106168 0.5133082
9.2497349 -1.2881819 8.3862085
7.8042226 -2.4896729 5.7635860
7.9525146 -1.6780405 5.6791487
8.6679182 -2.3110433 5.0713487
5.2957907 -5.2653646 9.2585087
5.4691391 -3.6619256 9.7331076
5.0580320 -2.3356094 9.9153976
0.3340006 -2.2086895 8.3058691
0.5310396 -1.7433807 9.3914061
5.2494173 -2.3987458 8.4081364
3.9695601 -4.4810214 8.8127489
2.8136489 -3.2167215 6.9518037
3.1434867 -0.7386554 9.2143946
5.2017593 -2.3465796 10.2164001
6.7526360 -3.3130784 9.9598942
3.6232550 -2.8404036 12.0523615
3.9389086 -1.3107536 9.7890806
7.4125905 -3.4511900 10.7759037
4.5505133 -4.2819710 8.4205637
6.0663052 -5.4358726 9.3477058
5.4592233 -3.6428378 9.7069702
2.9610031 -3.3268511 7.1975255
2.6522245 -3.4577799 6.9084845
2.9010308 -2.4998612 10.3641500
4.1244330 -1.2317579 9.6474419
2.2312043 -2.0267005 9.4090443
4.5655951 -0.8850495 8.7153816
2.8262899 -3.5323856 7.0882688
3.9753323 -4.5079160 8.8476267
0.3824631 -0.7013084 8.4224491
1.0623038 -3.3911355 6.4947896
2.0515115 -1.5806177 9.4600716
2.8638237 -3.6090255 7.2252283
1.7238144 -1.9020152 8.7832527
2.2208259 -1.5929320 10.2325287
2.3932252 -2.8589664 6.4320726
3.5837181 -1.8172117 11.4243670
4.4794645 -0.9375425 8.5269222
1.7231041 -1.9070808 8.7821169
3.8549962 -2.9413340 10.7897110
3.1880796 -2.3552492 11.0283546
4.0570865 -1.2679033 9.6429472
6.3085747 -3.5568926 10.7492323
7.7304468 -2.3366704 10.8008423
2.8066311 -3.2212853 6.9714341
2.4309502 -2.9997013 6.5282192
4.5063205 -2.4049380 11.3350573
5.6526885 -2.6048329 10.2866106
4.6948624 -1.8877934 7.7119002
6.6907706 -3.8462405 10.6875134
4.9518332 -4.1378093 8.2161045
7.2377329 -3.4643419 10.3425102
9.2935143 -4.4838567 7.9295497
7.9658747 -1.4385513 9.3068829
8.1187057 -5.1047430 8.8726521
7.7078528 -5.0209966 9.4061680
7.2117500 -3.6503334 10.2240458
7.7364869 -5.0940995 9.3991299
9.9816208 -3.1403577 8.7292252
8.8322830 -4.6357379 8.2421989
9.3449326 -4.0698590 8.0964994
7.0403962 -4.6451554 9.7909632
8.5482836 -4.4032040 9.5084391
6.7338352 -5.1638317 9.5115843
7.0602489 -4.6319966 9.8206434
7.9531465 -3.2488806 9.8521223
8.9184494 -3.2655921 8.9270973
9.0506229 -4.5058346 8.1930580
8.0913181 -1.6017761 9.6121168
4.7840991 -3.0841260 10.0676956
8.6476183 -4.6893468 8.6894274
10.2870464 -2.1798847 8.4802608
9.6134291 -0.8238633 8.9186735
9.6400785 -1.2781018 8.7275705
5.5127039 -3.5568614 10.2666378
10.2653513 -1.0714287 9.1390162
10.2860823 -1.4301794 9.4915228
9.2793703 -1.2942823 8.2572594
7.1676092 -4.3861589 10.0269718
8.4705353 -3.8163586 8.1232357
8.4954996 -3.8873448 8.1571026
8.7835207 -4.0961094 8.5547447
9.6210461 -3.0175688 8.4777412
8.4682055 -3.8543386 8.1631231
9.5630856 -1.2880486 8.7012911
10.2726336 -1.4294404 9.4972925
5.3204565 -2.8360617 10.6702785
9.8935251 -3.1513963 8.6959257
8.6314726 -3.6402326 9.1383371
9.0682087 -1.3940302 8.1581230
12.4131680 -1.7868612 9.4649601
10.4203815 -2.1801779 8.9127522
9.3302355 -3.7326872 7.5749316
11.1967516 -0.8406305 8.2535849
9.0771942 -3.0792880 8.9524136
8.9705811 -4.4525576 8.6990948
8.6227503 -4.6918030 8.6818409
7.8764133 -4.2843919 9.9869404
8.2726774 -4.6176167 9.0797510
7.0522919 -2.9641910 10.9282284
8.7045565 -3.2037127 9.2275038
10.7324820 -1.0062045 9.3095388
5.1270714 -4.1490741 8.2082291
7.7737832 -3.1385293 9.7077942
5.8732333 -2.1935718 10.7421293
9.4987488 -0.8099242 8.3546114
5.4843240 -3.7621479 9.5366907
4.7560353 -3.0551548 10.1562014
10.0475740 -4.3639970 7.7574668
9.3375244 -4.1279573 7.8248849
9.5640297 -4.3416348 7.7754312
7.8074632 -2.3657899 10.9220343
9.3123322 -4.4887161 7.9367385
7.2926011 -3.3912752 10.3228493
5.7478890 -4.0336909 9.7784739
9.0447235 -4.5092716 8.1891260
5.2869563 -4.1411824 8.1958237
12.6930323 -1.7501433 9.7491159
9.4918766 -0.8082829 8.3114014
9.2731361 -4.4701552 7.8826776
9.1720600 -1.1795592 7.8279495
6.7575765 -4.0085025 10.5189371
8.8915100 -3.8860440 7.3011551
5.8591499 -2.9428909 11.0321054
6.5927024 -3.5976501 11.1327820
8.4467888 -3.8117023 8.1396017
8.7774639 -4.6873794 8.2905951
12.7756538 -1.1469666 10.1023006
9.3085327 -1.3800406 7.5553007
8.5729799 -2.9250498 9.4549112
7.6653466 -1.7283123 11.0057955
8.7298298 -4.0491948 8.5504570
9.7210903 -1.0544996 8.9712601
6.5463247 -4.0701189 10.6719723
10.6187382 -1.3286706 9.2636871
10.3755016 -1.0018623 9.1802788
7.8012915 -1.6566818 11.2115793
7.6114907 -4.5075412 10.1678486
8.7870102 -2.8279846 9.3603754
1.3984150 -1.7922812 8.5512915
3.0220141 -3.3319530 7.2331648
4.5921102 -2.2389047 8.5687752
2.0802643 -2.5199199 9.6960373
7.8792148 -5.2679281 10.4054079
3.4164560 -3.5065043 7.6568966
2.0816207 -2.7872019 10.7170515
3.5776656 -2.0312006 12.4538946
3.2965009 -3.4984360 7.6340175
6.4151168 -2.3089151 11.0976658
6.3779211 -2.2988186 11.0649157
3.6455045 -3.8247497 10.8223619
5.5424070 -1.8766661 10.0262957
4.9411926 -3.9727666 8.6073341
6.8491845 -2.2722092 11.9919519
2.1302891 -3.0110238 10.3766804
0.7587324 -2.5299606 9.3852854
2.8967187 -2.0149398 10.4092093
2.0918875 -2.5152609 9.6350431
5.0342708 -2.0174670 8.2829313
2.7464292 -2.2002707 10.1404285
2.6827404 -1.9113122 9.9969139
2.6895940 -1.9111028 9.9858980
3.2440851 -1.8232067 10.8265362
4.9354277 -2.3921914 9.5923014
2.1504600 -1.7575954 9.3439989
4.3026509 -3.9495072 7.9347339
2.7538142 -2.3984191 10.0645056
8.8874445 -3.4010773 12.8628521
2.0669389 -3.8200603 10.1594877
4.5754142 -2.7346869 11.0855894
4.9993958 -2.1122761 10.1823082
1.8065982 -1.7940036 8.9322214
6.1853075 -2.8167796 11.1547709
2.7816808 -3.6454854 11.3552656
2.3144801 -2.0685053 9.1988468
6.4224262 -2.3061733 11.1839457
5.0767560 -2.3689539 9.8892612
5.4709549 -4.0110502 8.7996521
3.8515370 -3.5580957 10.7137957
3.0733724 -3.0327392 11.2068005
4.8758006 -3.0509887 10.2775383
4.7446423 -2.3349810 8.7319269
3.0712414 -2.4851465 10.3591623
4.4350834 -1.9613421 7.4888759
5.0103011 -2.1990232 8.1981421
1.4882745 -1.8121260 8.4555292
2.6771410 -4.0587044 10.6647682
1.7666458 -1.5006198 8.8660145
3.9010899 -3.7830288 8.3423586
5.5105019 -2.4292984 8.7213049
1.6247783 -1.2423823 8.9483566
2.8290412 -1.3919034 10.5551891
5.1764727 -3.7766213 9.8399792
3.5375893 -1.0155909 9.0467806
2.0911796 -2.5404842 10.7350521
2.0058796 -2.5578501 11.2679014
6.3827481 -1.4446912 9.1958485
2.4157798 -0.9517261 10.0420237
1.2926910 -2.1100037 10.4303226
3.8214109 -3.7186704 10.9473877
4.2285652 -2.7667298 9.4651785
4.3115721 -1.6647739 7.4893384
4.3859992 -1.7875289 7.3059821
5.8802104 -3.1405401 11.1890869
5.8046165 -2.8784244 11.0044365
2.0653613 -3.4388864 10.3554201
7.1893787 -4.4309111 9.9293919
2.7938006 -3.2085867 11.3172808
2.3579228 -2.9725139 6.4150281
7.3047757 -3.5848367 10.2385674
3.3126175 -1.1915497 9.1186028
4.8788424 -1.0379871 8.9862900
2.5928817 -3.6594286 8.0144224
1.4600641 -1.8032079 8.5038624
4.0992503 -1.9343061 7.9369006
3.8310478 -1.0075212 9.8878975
4.2059612 -1.9799514 8.0393524
1.4654037 -1.8027892 8.4993820
4.5003643 -2.0304582 7.5025768
3.8683288 -2.9468002 10.8464432
2.6264684 -2.9863758 6.7297564
2.6253948 -2.9892278 6.7364225
1.7677385 -3.0947919 10.5793476
1.9488766 -1.5732704 8.9470501
3.1921620 -1.7125131 11.4827890
7.5107746 -4.3889565 9.9908905
5.7404118 -1.8896750 8.4460487
5.2446413 -1.5384250 9.6116056
7.2554674 -3.1533797 10.4816875
7.2815242 -1.7254603 10.4173527
5.6734037 -4.4650536 10.6068439
6.4417434 -1.7253106 9.2430000
3.0320289 -3.3415549 7.2381458
3.6493480 -1.7732008 11.7639990
3.9625599 -1.3606009 9.7254705
1.7977638 -2.9157798 10.5822401
1.7158082 -2.0042183 8.7423687
7.1007800 -3.7165916 10.3869267
2.4692082 -1.7816917 9.9214869
5.6256189 -1.8023398 10.1515837
4.9631562 -1.6727611 9.0479069
4.8498836 -4.0539608 8.0740900
4.0565152 -1.9205772 8.0148916
1.5216769 -0.9705514 8.9564924
2.5896370 -3.0137420 6.5568333
3.9014773 -1.7236907 11.2002516
5.1854405 -1.2426498 2.8365262
5.7397757 -1.6941843 3.2517338
5.0169954 -0.8380884 3.1723104
7.8976331 -0.1515788 6.2406273
5.6859303 -1.4185820 3.4496665
5.2821469 0.5173322 2.8707829
4.7367611 0.6052356 2.7141097
4.8915529 0.3524370 2.7266901
5.2962656 0.5218521 2.8749022
5.2670684 -0.6564626 2.8227198
4.8976073 0.3494222 2.7257748
5.7430644 -1.6967877 3.2483163
7.6617413 0.1197990 6.2363071
5.8551154 -1.4455599 4.0736728
5.6831107 -1.1806071 3.9398482
6.4862514 1.5169408 0.5167637
5.7226000 -1.3768669 3.9282162
8.0029526 -1.0225722 5.9784503
5.0693760 -0.9911737 2.7499988
5.2154007 -0.9141403 3.0780718
5.6660628 -1.0578994 3.5434616
5.5474658 -1.4996305 3.2128916
4.8339133 -1.0808259 2.6846139
5.4258986 -1.3887209 3.0915227
5.6658645 -1.1515810 3.5810282
5.5148177 -1.3251021 3.2343507
5.8362150 -1.7673123 3.2832105
5.0895267 -1.0762427 2.6792619
5.2047915 -0.9286258 3.0870385
8.6110401 -2.0877151 5.1090789
5.3287864 -0.0103215 3.9771602
12.4904528 -2.3735125 2.4467075
4.9084735 0.3549724 2.7199254
5.5985465 -1.5233519 3.2526956
6.6433840 -1.2978805 3.9105513
4.8208776 -1.0976394 2.7103374
4.7733512 -1.0551231 2.6284685
5.1973681 -0.8242754 2.9533496
5.5334220 -1.8289273 3.4773278
5.3120594 -0.4016651 2.6866407
5.5951447 -1.1820154 3.7613995
5.8133650 -1.7025853 3.3554778
4.6725054 -1.1765552 3.0050948
5.4875994 -1.3896453 3.1429741
5.5572586 -1.8248079 3.4681294
5.8392901 -1.7836541 3.2879007
4.7712603 -0.7750415 2.8737490
5.2084675 -0.8467267 3.0693092
5.2806034 -1.4451407 2.7673154
5.5164900 -1.6282746 2.8985937
4.8483896 -1.0641805 2.6575451
5.2353878 -0.9025619 3.0701709
5.4491453 -1.0673271 3.6747744
7.6395612 0.4186743 6.0181026
5.4499059 -1.0694366 3.6754351
5.3389091 -1.3734486 2.9607577
5.2172785 -1.1834508 2.9179525
9.8717690 -2.4447174 3.8717837
5.3013878 -1.5532308 2.7070327
5.3778028 -0.9022379 3.2202475
4.7802663 -1.0502257 2.6215806
5.4951444 -1.6283290 2.9104941
9.8339939 -2.4405529 3.8726401
4.7876749 -1.0389494 2.6008511
7.8042583 -1.5743983 3.5620189
5.7507005 -0.1713771 4.4918876
7.6365418 -1.5883864 3.5845878
5.3415833 -1.5389229 2.6689165
5.4311242 -1.2695132 3.2202547
5.1693640 -0.9453746 3.2808657
5.4332447 -0.9747638 3.3411398
10.3570824 -2.5043159 3.2604570
8.9578981 -0.1203373 6.1133485
4.7645369 -0.9691540 2.6840808
5.2572289 -1.2602706 2.7477119
5.3981905 -0.8901255 3.2160327
5.9805489 -0.2226327 4.7676163
5.4552274 -0.9626244 3.3310132
5.3248944 -1.5438498 2.6821384
5.5209899 -1.6294540 2.8947864
5.4814162 -1.6351048 2.9222603
5.1926608 -1.2450711 2.8437445
5.1978540 -0.8380296 3.0520227
5.3127546 -1.1838392 3.0148463
5.7131209 -1.4348904 3.4414766
6.3892331 -1.4967122 4.6684232
7.6798944 0.4443739 6.1912608
5.8044229 -0.6716506 3.1950366
6.4007931 0.8158371 1.6128881
10.4196615 -2.8782334 3.8321581
4.8718724 -1.3769481 3.7285602
8.0083847 -0.3802125 6.2742066
5.7720575 -1.7599692 3.1826482
5.4952755 -1.0942420 3.7320511
10.9119205 2.0912921 -9.8950195
9.1069164 -1.6045517 4.7190404
8.8050880 -3.0460594 4.9717989
12.2013617 -2.3662174 2.5102360
5.2047830 -0.8370686 3.0549815
6.6912355 2.4283235 2.4450443
5.1224437 -0.9614125 3.3057806
7.2976508 2.2696645 -1.7072324
5.4859862 -0.7940181 3.8448753
5.7399211 -0.1761986 4.4982772
5.7517538 -0.1581200 4.4954057
5.0928683 0.2781690 3.7495267
4.7498155 -0.7530285 2.8694918
4.6961532 -0.7900767 2.6105103
5.2009320 -0.8646502 2.9909310
7.3038130 2.6459165 2.5990903
5.4970794 -1.1941658 3.7611382
8.3046560 0.5298877 0.6595227
7.8616409 2.1789649 -0.1715796
5.2101798 0.1725394 3.8659203
6.7090774 2.4046273 -1.5268109
6.6853814 0.7135816 4.9611092
6.2155414 0.6157405 2.5213451
7.9373016 1.7083720 -4.6452193
5.4926348 -1.0955898 3.7305701
12.4029541 3.2995689 -2.0771613
8.5352221 2.6896613 -1.3248671
7.7474127 2.7036905 -1.3893944
6.2971954 1.3808004 0.5831490
7.7999315 2.1128752 -2.7399747
9.0234098 3.2049112 -2.5922921
6.1623192 1.2025807 0.8510492
7.7910361 2.0083702 -2.3621387
7.1370769 2.3612025 -1.3357348
7.1753197 1.9621203 -3.2868719
5.0066023 -0.7108556 3.2195728
5.2470379 -0.9027305 3.0650012
5.7158203 -0.0608563 4.4479527
5.0766897 -0.8720659 3.2468643
5.0653286 -0.9461758 3.1586096
8.3178539 2.0458484 -0.8790528
8.7796621 2.9230704 -2.1847389
4.9794068 -0.8611596 2.7379529
8.8376799 2.5802231 -1.0890824
5.3541870 -1.0621228 3.4219415
6.4359641 1.2953571 0.7699653
4.8269439 -0.7499087 2.8367271
8.3186932 2.0382528 -0.8681929
8.2992373 2.7175932 -1.6560242
11.9073238 2.5784140 -1.9717709
7.1477814 2.1714289 -1.5090383
12.4240761 3.4769702 -2.1646869
5.0797148 -0.3098359 3.4789879
7.6654806 0.3883881 6.0979085
6.6462297 2.6828942 2.3033862
7.7544732 -1.0169677 6.8330326
9.5669050 -1.5368922 7.3526587
8.7445269 0.7373952 5.4240317
11.5460196 -1.6174086 3.2092946
9.2577343 -1.4566829 7.5878863
8.8617678 -0.1629242 5.4152727
8.7286043 -2.5082338 4.9476304
9.2636967 -1.2826627 4.9265094
9.0351305 -1.3496510 4.9346457
7.9393773 -2.8135870 5.2595119
7.9505677 -3.0921240 5.2012925
7.9387045 -2.5224633 5.8708811
6.7474179 -0.8913234 2.8593671
6.6054363 -1.0259182 3.0058725
7.8876734 0.0270435 6.2124567
8.4537458 0.5012947 5.3866544
8.5488262 -1.9194114 5.1515117
10.1764650 -2.4904075 3.2969041
7.9700613 -2.9630105 5.2208405
8.2056379 -2.4299920 5.7378521
5.5755601 -1.7824583 3.5178564
9.1757259 -0.4567604 8.0533028
6.3448896 -1.5911034 4.6902857
8.6474695 -2.2828310 5.0632038
7.8173151 -2.8056896 5.2485800
8.5483103 -1.6858833 5.1918273
8.1327105 -0.7960442 6.2241178
22.3473148 -0.2734983 -2.5942767
7.9405246 -3.1452751 5.5973663
7.8219585 0.1412827 6.1987576
7.8273215 -3.1576159 5.2014527
10.3168402 -2.5017331 3.7005837
5.5611620 -1.1847074 3.7879100
5.8355522 -1.7731940 3.2833600
8.2058697 0.7331258 5.5745611
8.0800619 -2.1336558 5.9873443
5.6035528 -1.5323207 3.2528567
5.6685987 -1.4410386 3.4526854
7.6320529 -1.1564038 3.5542023
5.5046554 -1.0923090 3.7404425
7.0424814 -1.4294332 4.0221715
9.3927698 -1.4484341 2.3521187
5.6085472 -1.5282066 3.2468588
5.9349399 -1.6358356 4.0424256
6.2121797 -1.5185355 4.5346255
5.4461207 -1.0637424 3.6754894
9.3325615 -0.6715440 7.7078943
5.5788980 -1.5229515 3.6235342
5.6037316 -1.5270262 3.2505162
8.4309225 -3.2044652 5.5419459
8.4104118 -2.0548527 5.0861645
6.9883823 -0.8696418 3.0562220
6.8811741 -0.9445844 3.1212633
5.5836120 -1.2375896 3.4203801
8.0097704 -2.3352029 5.4148016
7.9418507 0.1398091 6.0978913
11.6839466 -2.2475693 3.1878986
8.2328444 0.9897221 5.5259414
6.1512165 -1.0728080 3.4259524
6.2481837 -1.5759289 4.1780558
5.9340415 -1.2578205 3.6583772
6.5671539 -0.9407749 3.0154099
8.6422577 -2.0734801 5.1014724
5.9435754 -1.2675358 3.6568325
7.8407326 -0.0231460 6.1995740
6.0271592 -1.1703928 3.5498538
8.5451117 -1.2370732 5.2400084
5.6826797 -1.1910859 3.9405236
5.9612732 -1.3826671 4.2327695
7.8894672 0.0965000 6.1294160
5.9650674 -1.2137446 3.6196494
8.1064596 -0.9797970 6.2430177
6.5181293 -0.9876412 3.0673239
8.0872965 0.1571702 6.3796549
7.8854718 -3.0801339 5.1561837
6.6910305 -0.9553456 3.2838354
5.7363515 -1.2175725 4.0077243
5.9700093 -1.3337959 4.2570395
6.1769586 -1.0580124 3.4028759
6.3555789 -1.6497936 4.5411882
9.2359152 -1.7511557 4.5863290
8.2275524 -1.4339868 6.7698193
10.2429047 -0.1769997 1.3848962
10.4940500 0.3926214 4.5022159
6.7494850 -1.0722827 2.9376106
6.8195820 -1.5598731 2.5451012
12.3415985 -0.5219319 2.6752427
11.9420223 0.4040426 3.2831967
9.5881014 -1.4451526 7.3294935
8.9984655 -0.0933882 5.4570413
10.2848234 -1.2802579 3.8558526
8.7033920 -2.7117565 4.9787002
6.7154160 -1.1028317 2.9581566
10.1578169 -0.9856921 0.1548810
14.4772682 -0.1080629 -2.4619601
10.4356718 -2.2686718 3.3259354
8.0443048 -1.6617342 5.6780720
11.7736864 -1.9069594 2.3345361
13.0680037 -1.3752658 1.0419755
8.5236444 -2.0675416 5.0770960
13.3010578 -2.0249748 1.6835086
10.4977865 -1.8312222 3.4422143
14.9162798 -0.9603839 -1.0596572
5.5750527 -1.2345026 3.7568297
7.4564524 -1.2980216 3.7018697
11.6820421 -2.4791462 3.6752033
5.7147198 -1.3634576 3.9205542
5.5721817 -1.1781548 3.7738421
5.8324132 -1.8032587 3.3100808
5.8587499 -1.7923391 3.2729528
6.4063540 -2.0108066 4.4189324
6.6326199 -0.8872545 2.9436548
6.1616778 -1.9267668 2.8832316
6.4312735 -1.2513971 3.5026038
6.7240486 -1.0709739 3.2439773
6.3665891 -1.6318164 4.5479145
6.3347459 -1.5202575 4.6673350
5.9835196 -1.7286394 3.0907619
5.5748706 -1.1761206 3.7714412
7.5435987 -1.8195225 3.5737369
7.4423733 -1.3392770 3.8182280
6.1152158 -1.9453708 2.9550722
6.0399728 -1.5039709 4.2861772
5.5712538 -1.2362806 3.7535365
13.2984838 -1.5047257 1.3904647
5.3434811 -1.0051191 3.4155021
7.7656131 -3.0937347 5.1718440
5.3485875 -1.3752732 2.9547894
5.6395564 -1.3013413 3.8401718
8.3466311 -2.4432998 5.7827706
5.9290648 -1.3641219 4.2133989
15.9040127 -0.9862579 -0.3383459
10.5162458 -0.9854496 -0.1267701
7.8849459 -3.0577989 5.3653884
5.5699987 -1.3671190 3.3198905
5.3370814 -1.3775262 2.9602833
5.3466239 -1.3763704 2.9550648
5.3016405 -1.0830560 3.0885828
5.4306202 -1.3894687 3.0914927
6.9460692 -0.9902934 2.9841361
6.8981404 -1.8392066 4.1514826
7.0875225 -0.9298192 2.8953233
6.4245114 -1.9561670 4.5137024
6.8841653 -1.8264518 4.1641073
8.1170292 -2.9006684 5.0851603
8.7183170 -2.7421484 5.0009046
8.9842091 -1.5598793 4.6373625
7.9088359 -2.7924380 4.8820391
10.0991240 -2.3275621 3.2850099
9.0554161 -2.8076789 4.7060103
13.7239914 -1.3667755 1.1443342
7.8004513 -0.0117224 6.2327914
8.6606207 -2.5086429 5.0266914
11.1415949 -2.5178812 3.0706141
10.2221594 -2.4979539 3.2808728
5.5829306 -1.2129807 3.7259831
7.9452510 -1.6783910 5.6912317
8.6589499 -2.4515200 5.0096254
14.7963066 -1.0320568 -1.0414287
7.9797883 -1.9693177 5.5308447
13.0991802 -1.5343344 1.4467974
9.1796455 -3.1122212 4.1468372
5.1346197 -0.9422528 3.2810130
6.7457337 -1.5838884 4.3820100
5.1497912 -0.9392882 3.2753508
8.5194969 -1.9259216 5.1250844
5.2929602 -1.0797650 3.0930526
8.6267023 -2.7310700 4.9911208
10.7028408 -0.4861918 1.3403516
9.4889851 -2.9353716 4.1024246
7.9924307 -2.8814960 5.0702424
8.7717638 -2.7285507 4.9943156
8.4505939 -1.0283611 5.2965660
8.1212196 -0.9810599 6.1406050
8.0456066 -1.0095760 5.9430075
5.4295053 -1.3101836 3.1556647
7.9783216 -3.1448169 5.2062345
5.4858260 -1.0474424 3.3608079
8.8262138 -1.4408240 5.6973357
8.4453535 -0.3858182 6.1065321
8.1891003 -2.3152456 5.4297276
5.6701126 -1.1544011 3.5732837
8.0083418 -3.0639789 5.3907332
5.6801538 -1.1438677 3.5747104
5.2125092 -0.9424350 3.2720132
5.6827002 -1.4229566 3.4533002
5.6779222 -1.4270562 3.4543326
5.5853882 -1.2302912 3.4158723
5.6692610 -1.1522300 3.5728376
13.6882706 -2.1925588 1.3737032
6.9948025 -0.8690580 3.0430472
9.1967182 -0.0148056 5.3320341
8.3583612 -0.3643991 5.4067078
8.8788691 -2.9671814 4.9647026
8.2687302 -0.8944024 2.1673846
8.6742134 -2.3023117 5.0698638
7.9931617 -3.2122416 4.9171343
6.9523702 -1.4988725 4.0633831
13.2749662 -2.1937389 1.5345037
7.2730889 -0.8256288 2.7802532
5.6423764 -1.2119243 3.8902547
6.9249120 -1.5088116 4.0637569
9.4431658 -0.4014489 1.2484055
5.4396639 -0.9816592 3.3495703
5.2451215 -2.8519154 10.4870005
2.8519897 -2.3891482 10.0899487
3.3123055 -2.1319394 12.2092018
6.4300785 -2.3484676 11.2754641
2.3458543 -3.5979581 10.4205236
7.8590631 -1.3050706 9.2540751
7.6725111 -2.2982359 10.7534542
4.9064922 -4.0611267 8.1410418
7.8559899 -1.6682371 10.9159126
7.0856619 -1.5913544 9.0237598
8.1971617 -1.5921766 9.4992380
8.6462593 -3.4183424 9.1800909
3.1419580 -2.6001408 10.5045176
7.0872741 -3.1477778 10.2890739
4.9374714 -4.1292968 8.5277052
4.9476414 -4.0979123 8.2015238
8.5616035 -3.0604897 9.4089909
8.1920023 -1.7310619 10.7358150
7.6392670 -3.5068359 9.9250574
3.9000657 -1.7406518 11.1629868
7.8188148 -1.3078524 9.2388096
7.7977004 -3.6115696 9.7872677
4.2212400 -3.9750457 8.8507338
7.1443787 -3.3517864 10.4809351
4.9328070 -4.1273351 8.5231342
5.5545926 -1.9786490 10.2864542
5.0730748 -2.1382191 10.2823534
8.0993557 -1.5981125 9.6200209
5.7495279 -1.9192445 10.2724962
7.8151269 -4.2499199 9.9106398
2.0697634 -3.4366813 10.3366327
8.5685730 -1.5071325 10.6219530
6.2697663 -2.0027494 10.5761528
7.1106911 -3.9094434 10.2897434
1.7792112 -2.9127667 10.6024294
7.2948012 -3.5881383 10.2222595
7.3337121 -3.7781100 10.1124516
5.1309042 -2.2759898 8.3247986
5.1260486 -2.0710862 10.4890223
6.2815132 -2.0104582 10.5740242
2.8943651 -2.0210130 10.4177256
3.7023942 -4.6182933 9.1216679
3.8146498 -4.5522690 9.0853014
7.4049878 -4.2336726 10.0748615
5.2937264 -1.4384854 2.7538126
6.7235627 -1.5905182 4.3592415
9.2789869 -0.7170323 2.5229602
5.3389478 -1.3826597 2.9599652
6.0188093 -1.4129512 4.3080354
5.2831101 -1.4407754 2.7645822
10.5792065 -2.2769544 3.2955287
12.6394625 -2.0675635 2.5891213
6.7779155 -1.5611364 4.3792763
10.1842489 -2.3114445 3.5960038
5.6416993 -1.3042760 3.8383315
8.3714132 -1.0617572 5.2738934
6.7233090 -1.5743663 4.3836937
14.9943876 -1.5448527 -0.3416698
8.9677038 -2.8126075 4.6710739
11.9791441 -2.5751250 2.4212642
5.4800162 -1.0450923 3.3642828
5.7462745 -1.8097228 2.9932296
9.2158957 -1.0940233 2.4347725
5.2795811 -1.4376786 2.7675970
5.2176542 -1.1869917 2.9171686
7.8719578 0.0439324 6.3066611
7.9486876 -1.9123656 5.4637437
5.5646830 -1.5990095 3.0441232
5.2312350 -1.1819239 2.8988469
5.2899265 -1.4420888 2.7596104
9.0444632 -2.9327838 4.5740509
6.3215642 -1.5206732 4.6596408
5.3490849 -1.0058321 3.4162736
8.5200605 -1.7103930 5.1619296
5.4309592 -1.3245124 3.1277752
5.3074222 -1.0801719 3.0858569
9.9612789 -2.4434650 4.1038899
5.2442880 -1.1819762 2.8896422
5.2208633 -1.2358150 2.8278127
5.7298822 -1.2154332 4.0148072
5.1818981 -0.9325162 3.2649291
5.2201247 -1.1924937 2.9062288
5.4319615 -1.0889523 3.2939408
7.6200247 0.4045345 6.1812391
5.4375014 -1.2649970 3.2142613
6.0367947 -0.3285940 4.8154950
9.1333408 -2.8618908 4.0894098
5.5835366 -1.1480405 3.7128067
7.6247430 0.3203884 6.1786809
9.1387548 -2.9956958 4.6093955
7.8385773 -0.4609792 6.3736506
14.5445299 -1.8039320 0.6195870
10.7944250 -2.2805645 3.2580142
11.5381241 -1.9837564 2.5548167
14.5293493 -1.0143311 -0.8218194
8.9530115 -2.8026085 4.6710162
6.3230290 -1.5348227 4.6653509
5.4545860 -1.0629777 3.6714900
8.9917612 -2.9926307 4.8355308
5.6118040 0.5826895 2.2249918
5.5013728 -1.2048467 3.2075465
4.6473470 0.3970544 2.5285170
5.3392777 -1.0316919 3.4736679
11.9640646 2.1674256 -10.7498045
5.0785365 -0.8726647 3.2474642
5.2177806 -0.8323331 3.0481002
10.5425205 1.8679496 -9.1564016
5.2650867 -1.3635491 2.9228349
6.5448108 -1.3142012 3.9225798
5.3228445 -1.3809630 2.9653482
5.5869122 -1.0720959 3.5378501
5.4617314 -1.0779115 3.5649996
13.5810823 1.4517223 -9.1301813
4.7683973 -1.0602263 2.6335893
12.2729988 0.9738009 -7.3173285
4.8483253 -1.0759898 2.6729324
4.8245831 -1.0000551 2.7671416
12.3952065 0.9938349 -7.4393177
5.5381141 0.4428558 3.0948584
7.6794987 2.1562796 -0.1421329
12.4148855 2.7857649 -12.8225927
8.5611601 -0.3705133 6.1499262
5.5820723 -1.2257868 3.4128952
4.8190589 -1.0951854 2.7092497
4.7598763 -1.0626299 2.6435933
6.0242758 -0.3136202 4.8103719
4.8290191 -1.0894899 2.6971223
5.4031868 -0.9915222 3.3513329
5.8795242 -1.4329468 4.0720367
5.6002727 -1.5211630 3.2535975
5.5662937 -1.5057901 3.0934682
7.7105350 -1.5841091 3.5564833
4.7609286 -1.0643960 2.6406534
5.1192985 -1.0540278 2.6433780
5.3436232 -1.3709131 2.9595759
5.6837468 -1.1853892 3.9399869
5.9845328 -1.7889694 4.0505619
5.3496928 -1.3735185 2.9576550
7.6483450 -1.5906143 3.5683570
5.7571673 -1.7626530 3.1888044
5.9476013 -1.7910267 4.0510211
5.4283972 -1.3278254 3.1268499
6.5371890 -1.3234820 3.9222171
5.9899740 -0.2183983 4.7771773
4.7808242 -0.9601904 2.7079823
5.4493985 0.3320721 2.9186494
5.4223609 -0.9867585 3.3515954
4.7864938 -1.0512835 2.6238966
5.2119985 -0.9177489 3.0795107
5.7863579 -1.5695285 3.3833225
5.6024265 -1.5143636 3.2580390
5.4488540 -0.9708129 3.3353162
4.7689543 -0.9763536 2.6827164
8.7963343 -2.3204322 5.1016941
9.2966585 -1.3998587 5.8477602
7.6422896 0.3372616 6.1922002
9.0535421 -3.0023272 4.8388352
5.8148208 -1.7269770 3.4630270
5.7048936 -1.3540765 3.6333547
5.2708850 -1.0907739 3.1054542
5.7529984 -1.4200058 3.0172813
5.9408870 -1.3274528 4.2520337
5.5946331 -1.2252766 3.4139836
5.2936916 0.5305553 2.8606670
5.5425816 -1.4625517 3.1514080
5.2268128 -1.3501991 2.7164705
5.2096062 -1.2472004 2.8548646
5.7970829 -1.5758606 3.3874123
4.7875595 -1.0541859 2.6318178
7.0020647 -1.4683676 4.0478034
6.7152066 -1.2932035 3.9359019
9.5030212 0.4969456 -3.6009781
5.1786833 -0.8496463 3.0642331
5.2876787 -1.2937865 2.9839802
9.3822260 -2.6850064 3.7046487
7.6076822 0.4080915 6.1366038
12.3314581 -2.5810769 2.2886450
5.3141813 -1.0214896 3.4280050
5.1624718 -1.2685729 2.8919556
4.8045220 -0.9510556 2.7795928
5.7715573 -1.1483968 3.6585445
5.2532306 -1.3931733 3.0122905
5.7190909 -1.6608270 3.3897016
5.1839557 -1.2569757 2.8759031
5.2741346 -1.2090609 2.7737923
5.9752789 -1.7880991 4.0503621
5.7174048 -1.6574364 3.3912914
6.8772993 -1.4928974 4.0464149
5.2851124 -1.3859251 3.0071175
6.2870054 -2.6455131 10.9866552
8.5655756 -2.8984241 9.4821730
7.2401776 -1.5896947 9.1170683
8.4994249 -2.4744835 9.4589615
7.0687842 -4.5050364 9.8642483
5.9852934 -2.7690396 10.6974154
7.1715317 -4.4405222 9.8586264
4.5562692 -4.2626829 8.4261208
5.6340709 -4.1429248 8.3242464
5.0022240 -3.7748427 10.1253614
8.8209486 -4.4119725 8.5929384
7.9481778 -1.5899466 11.2850389
8.7334290 -3.1439350 9.2528467
8.9357338 -3.9370489 8.6934843
8.5280046 -2.5685782 9.4803314
7.0321984 -4.3980680 10.0200081
5.2534666 -2.4587479 12.9723778
8.7545471 -2.9409702 9.3144751
8.0177860 -4.3033199 9.4107609
8.2696466 -2.0291038 9.4067345
8.1711645 -1.6020038 9.4765320
4.5083055 -1.8349351 11.2666998
8.1221895 -4.6662188 9.2337456
7.8445444 -5.2474709 10.3573217
5.7620587 -4.0667582 9.8084249
7.7694583 -2.8733802 10.7075043
8.6328278 -2.2938151 9.6843185
8.5944586 -2.3329291 9.6534595
5.9335485 -2.7815259 10.5662851
7.7809205 -4.2447119 9.9538021
8.5367479 -4.1136746 8.9593449
8.5104694 -3.2797828 9.3920813
7.7419105 -3.1097641 10.1120205
7.8490419 -5.2417431 10.3707867
10.5217628 -2.1888428 11.2600145
8.3560095 -4.3286586 9.3188343
6.4562421 -3.5643287 10.9975386
6.3983154 -3.5567224 10.8963804
8.5661316 -3.2600245 9.3159666
8.9303436 -2.8760264 9.1057739
4.9785800 -3.7549355 9.9556360
5.8656936 -3.1267519 11.1869888
9.3679762 -0.8005356 8.5344915
4.9809952 -3.0615087 10.3102789
7.3943758 -4.3545470 10.0130157
6.8030663 -2.5649481 11.7044067
9.3091812 -0.8478862 8.5077257
5.7230191 -3.0978870 11.2759228
6.4505262 -1.8696080 10.3186617
8.7160978 -2.4418435 9.6170788
8.1719446 -1.5972208 10.4387875
5.7345963 -4.0318384 9.7288074
7.0973520 -4.6701250 9.8259954
4.7756553 -3.0518627 10.2794895
5.7240872 -4.0336294 9.7236900
5.1504936 -4.1278772 8.2289352
8.4978800 -2.3328788 9.5811005
5.5224094 -3.5570283 10.2594528
9.2499542 -3.9918053 7.1103787
9.1518803 -3.9173117 6.8735933
8.8297415 -3.2443626 7.2161965
10.3571978 -1.2698238 8.9901724
11.8095798 -2.0472119 10.9030018
12.3497820 -2.5876052 7.7663188
8.2052755 -1.6637638 10.6288719
10.9368372 -0.8841230 8.1649742
5.9556026 -2.8816025 10.6771002
9.3225040 -3.9680915 8.1333437
12.1488667 -2.6023507 7.7479672
9.1445379 -3.5163753 7.7437696
9.8560238 -3.4823503 8.5288029
9.3291740 -0.6770465 8.4345684
12.2946024 -1.4068007 9.9247799
8.8400974 -3.7966232 8.4877748
7.4579692 -4.2572484 9.8454180
6.1019020 -2.7847333 10.7868395
7.8065748 -3.2567947 10.0172300
8.7714367 -2.9218206 9.3206854
10.3674212 -2.4751446 11.8719254
10.1392698 -2.5264635 11.6197519
8.3037701 -4.7910805 9.0292253
7.0500765 -5.0985575 9.6460342
6.3031659 -2.2328460 11.3277369
8.3040552 -1.5485702 10.5590658
8.2311487 -1.9649833 9.3840427
8.3282042 -1.4542185 9.8486052
7.1091394 -4.6723766 9.8884602
6.1182480 -2.3929865 10.6692095
8.3568192 -4.8659129 9.1770840
6.1893787 -2.7525711 11.0575895
9.7648554 -4.3919325 7.5743098
8.7960968 -3.1062176 9.1541910
8.6385984 -3.7103202 9.1952667
7.8817625 -1.6162400 11.3027182
7.1013980 -5.1981115 9.5624809
9.0298891 -3.0951188 8.9615278
10.3381872 -1.4176965 9.4914293
9.2490454 -1.3046088 8.2433186
9.4239626 -4.3573546 7.8409319
9.7394056 -2.5381229 8.8483477
7.2787790 -2.1988697 10.8327847
5.7021189 -2.9930320 11.1456089
6.0161767 -2.7444854 10.7654686
9.1512890 -1.1991907 7.8235369
9.6324329 -4.3586559 7.8963027
9.0180645 -2.9323115 8.9400730
8.7677460 -4.6353703 8.2204189
7.4993691 -4.3725114 9.9754992
5.5230479 -3.5750434 10.3191423
7.2986736 -2.2318096 10.8519602
8.0811682 -1.4683167 9.4671297
8.5484781 -3.2457705 9.3187838
8.4415550 -3.6160936 6.8817234
7.7874002 -4.2257252 9.8681002
7.5952592 -4.4983687 10.1477747
6.9867787 -4.6092434 9.8077936
5.6825747 -2.5848920 10.3729420
5.6856947 -2.5863724 10.3835993
8.3130941 -3.8457148 6.9800620
8.8554220 -3.2455008 7.2259698
7.9636936 -1.4429907 9.3028193
8.6957712 -3.8606558 6.8239236
7.2462544 -1.5931648 9.1255960
7.9235458 -1.6695385 10.7819996
6.1617632 -2.7633035 10.9851933
8.6119328 0.1196375 5.4225879
8.6578617 -2.7264168 4.9901114
8.1780052 -2.3221211 5.4330587
5.5615249 -1.8131177 3.5661829
7.8782067 0.0410193 6.2899356
5.7298040 -1.2186880 4.0021739
12.9530230 -0.7027529 -1.6503592
10.7437553 -1.2066678 3.7739651
8.9682684 -2.0200000 4.6716218
9.8243847 -1.8610368 4.2845387
7.8122797 -3.0570550 5.4009547
5.4302192 -1.3326249 3.1270523
5.4985886 -1.3193152 3.2420754
5.8597941 -1.4311792 4.0788212
5.4598699 -1.0844419 3.5723972
5.4243245 -1.3370336 3.1309655
9.2502165 -2.8454092 4.2844300
5.4118295 -1.0218898 3.2740698
7.8217764 -2.8852186 5.6411409
5.4628057 -0.8910577 3.7718928
8.0491390 -1.6639142 5.6702471
7.7126274 -1.7648160 5.7465091
5.5852590 -1.8171024 3.4719820
7.0070744 -1.4979333 4.0598254
8.7047024 0.2964989 5.7907596
13.8371258 -1.1195192 -1.7050471
11.4545374 -2.1330879 2.8926725
8.5639677 -1.8655766 5.1447473
7.9227104 -1.9194039 5.4555492
12.6187944 -1.7613254 1.5506117
8.1844082 -1.6190861 5.7095232
7.9599395 -3.0892987 5.3716354
8.5553942 0.5172762 5.3873272
5.4084530 -1.0279984 3.2747924
7.9871883 -1.4335006 6.7349339
8.5475454 -0.9947323 2.1027887
13.6947660 -1.4260399 0.9796287
10.2350378 -2.4511282 3.9461365
15.2278042 -0.9766032 -1.3153239
7.9092870 -1.8010955 6.0562677
5.5637927 -1.8287324 3.4857433
5.4873509 -1.0459117 3.3633454
5.6827412 -1.1877009 3.9405575
5.7007465 -0.8106622 4.1354742
6.9219484 -1.5225438 4.0874028
5.6729980 -1.1507860 3.5762284
5.4098973 -1.0254841 3.2776933
6.8864913 -1.8408988 4.1499920
8.4579029 -1.0332509 5.2857928
5.5774422 -1.7811757 3.5159514
6.4178061 -1.6196448 4.5478063
10.0135183 -1.8577904 4.3018279
7.9493651 -3.1394312 5.2074795
8.8068771 0.2683819 5.4844379
8.5320444 -1.9023324 5.1504650
8.1258593 -0.9427415 1.9620478
9.1731396 -1.9908412 4.6713123
5.6103907 -1.2171888 3.8599777
7.8589802 0.1746316 6.5095239
8.6127186 -2.0847380 5.1054692
8.5122910 -1.4686362 5.2238312
5.5577230 -1.5982093 3.0493865
5.6412063 -1.4598298 3.5008714
9.1403246 -2.9583426 4.5682988
7.5125246 -1.3149079 3.7912920
8.7756720 0.3472849 5.8136172
8.6296177 -1.9019696 5.1619925
7.8132071 -2.4972904 5.7711177
8.3564167 -2.4282987 5.7854619
5.6013961 -1.5273259 3.2525694
5.6354785 -1.4645216 3.5037820
8.4489641 -0.3690013 5.3919368
10.0414257 -0.4283659 4.5682502
9.4464245 -2.5018222 3.9129407
8.9387579 0.4221530 5.3152409
5.5855951 -1.7874463 3.5090864
8.4267721 -0.8085901 5.3214355
5.4992671 -1.3313527 3.2426119
7.0104313 -0.8620275 3.0226030
8.0872478 -0.9229138 1.9499226
10.7368603 -2.6298802 3.1112514
5.4929318 -1.0446090 3.3628099
8.0054827 -1.0178825 5.9600573
5.4647079 -1.0783004 3.5659714
5.7891803 -1.2840542 4.0496435
8.4142342 -1.0401833 5.2892394
8.8621817 0.7799613 5.4203706
13.1249714 -1.5609610 9.3852730
9.0362577 -4.4941735 8.1835356
8.1949615 -1.2513897 10.2361155
8.2895498 -2.0456913 9.4000664
8.3048811 -3.8858371 6.5125647
7.6800160 -5.1083097 10.0951128
8.4122362 -3.5590007 6.8213320
9.5626163 -1.4290041 7.2920027
7.8614697 -1.3155166 9.2525368
9.5875130 -1.4298689 7.3096504
8.3841515 -3.5703359 6.8174319
8.8115911 -3.8920984 6.8741193
8.3864841 -3.5471575 6.8142505
9.5201120 -4.3786879 8.4527340
7.1111960 -5.2187772 9.5858107
5.7316289 -2.5316062 10.6479759
8.8873224 -0.3021843 8.5360470
8.7933102 -3.1126106 9.1468296
8.1612206 -5.1179056 8.9022655
8.6518126 -3.6649187 6.6922898
8.1290741 -5.1077638 8.8794289
7.3211422 -3.7891312 10.1275530
9.9759359 -4.3562574 7.7559686
7.1062431 -3.5351367 10.4857702
9.9037304 -1.1341116 9.1784935
9.0976849 -3.8152678 8.6103668
8.5125532 -2.5839555 9.4621840
8.6544132 -3.4978862 6.3391438
8.2243986 -3.5960052 9.4551945
8.2203979 -3.5969858 9.4502087
9.5601263 -1.1096939 7.4069037
11.5062990 -1.7689736 11.4584131
7.0472741 -4.5230088 9.8355198
8.7923927 -0.4190356 7.6074181
8.3381624 -3.6553779 6.6739802
8.3657894 -3.4776216 6.6565280
8.3793058 -3.5666122 6.8259420
8.8343935 -3.2480936 7.2277555
9.8641491 -2.9869554 8.2710562
15.9441271 -0.6123199 7.9226713
10.6342154 -2.5766590 7.9428220
6.5228353 -3.9053159 10.7957497
14.9643993 -0.6884375 8.7932997
11.8419933 -2.1289756 7.3198848
12.4635000 -2.0413601 7.2771821
9.2767515 -4.1325831 7.7939706
8.0922155 -3.1580787 13.0013981
7.5101833 -3.1358263 10.7903929
7.0432444 -4.5006833 9.8263578
7.1198058 -3.8930678 10.2849636
9.3838329 -4.3486056 8.3998861
9.8909922 -1.5492080 6.8976674
11.9702492 -1.9811741 11.0380831
15.2675009 -0.6022797 8.8973360
8.0642376 -1.2610799 9.2488613
9.4026871 -1.2220541 8.1737499
15.2201996 -0.6392645 8.8660421
8.0599203 -1.6861993 5.9471912
7.8828712 -1.9254308 6.2360692
